VERSION .7
FIELDS x y z
SIZE 4 4 4
TYPE F F F
COUNT 1 1 1
WIDTH 1887
HEIGHT 1
VIEWPOINT 0 0 0 1 0 0 0
POINTS 1887
DATA ascii
-10.3289 6.52796 1.43697
-10.3289 6.75329 1.41554
-10.3289 6.97862 1.39361
-10.3289 7.20395 1.37118
-10.3289 7.42928 1.34828
-10.3289 7.65461 1.32492
-10.3289 7.87993 1.30111
-10.3289 8.10526 1.27686
-10.3289 8.33059 1.25219
-10.3289 8.55592 1.22711
-10.3289 8.78125 1.20164
-10.3289 9.00658 1.17579
-10.3289 9.2319 1.14957
-10.3289 9.45723 1.12299
-10.3289 9.68256 1.09606
-10.3289 9.90789 1.0688
-10.3289 10.1332 1.04121
-10.3289 10.3585 1.0133
-10.3289 10.5839 0.985098
-10.3289 10.8092 0.956596
-10.3289 11.0345 0.927809
-10.3289 11.2599 0.898746
-9.82895 -11.7237 0.895403
-9.82895 -11.4984 0.925644
-9.82895 -11.273 0.955636
-9.82895 -11.0477 0.98537
-9.82895 -10.8224 1.01484
-9.82895 -10.597 1.04403
-9.82895 -10.3717 1.07293
-9.82895 -10.1464 1.10154
-9.82895 -9.92105 1.12985
-9.82895 -9.69572 1.15783
-9.82895 -9.47039 1.18549
-9.82895 -9.24507 1.21281
-9.82895 -9.01974 1.23978
-9.82895 -8.79441 1.26639
-9.82895 -8.56908 1.29262
-9.82895 -8.34375 1.31846
-9.82895 -8.11842 1.34389
-9.82895 -7.89309 1.36892
-9.82895 -7.66776 1.39351
-9.82895 -7.44243 1.41765
-9.82895 -7.2171 1.44134
-9.82895 -6.99178 1.46455
-9.82895 -6.76645 1.48727
-9.82895 -6.54112 1.50948
-9.82895 -6.31579 1.53116
-9.82895 -6.09046 1.55231
-9.82895 -5.86513 1.5729
-9.82895 -5.6398 1.59291
-9.82895 -5.41447 1.61233
-9.82895 -5.18914 1.63114
-9.82895 -4.96381 1.64932
-9.82895 -4.73848 1.66686
-9.82895 -4.51315 1.68373
-9.82895 -4.28782 1.69992
-9.82895 -4.06249 1.71541
-9.82895 -3.83716 1.73018
-9.82895 -3.61183 1.74422
-9.82895 -3.38651 1.75751
-9.82895 -3.16118 1.77003
-9.82895 -2.93585 1.78176
-9.82895 -2.71052 1.7927
-9.82895 -2.48519 1.80283
-9.82895 -2.25986 1.81212
-9.82895 -2.03453 1.82058
-9.82895 -1.8092 1.82818
-9.82895 -1.58387 1.83492
-9.82895 -1.35854 1.84078
-9.82895 -1.13321 1.84577
-9.82895 -0.907882 1.84986
-9.82895 -0.682552 1.85305
-9.82895 -0.457223 1.85535
-9.82895 -0.231894 1.85673
-9.82895 -0.00656414 1.85721
-9.82895 0.218765 1.85679
-9.82895 0.444095 1.85545
-9.82895 0.669424 1.85321
-9.82895 0.894753 1.85007
-9.82895 1.12008 1.84603
-9.82895 1.34541 1.8411
-9.82895 1.57074 1.83528
-9.82895 1.79607 1.8286
-9.82895 2.02139 1.82104
-9.82895 2.24672 1.81264
-9.82895 2.47205 1.80339
-9.82895 2.69738 1.79331
-9.82895 2.92271 1.78242
-9.82895 3.14804 1.77073
-9.82895 3.37337 1.75826
-9.82895 3.59869 1.74501
-9.82895 3.82402 1.73102
-9.82895 4.04935 1.71629
-9.82895 4.27468 1.70084
-9.82895 4.50001 1.68469
-9.82895 4.72534 1.66786
-9.82895 4.95066 1.65036
-9.82895 5.17599 1.63222
-9.82895 5.40132 1.61344
-9.82895 5.62665 1.59406
-9.82895 5.85198 1.57408
-9.82895 6.07731 1.55353
-9.82895 6.30264 1.53241
-9.82895 6.52796 1.51076
-9.82895 6.75329 1.48858
-9.82895 6.97862 1.46589
-9.82895 7.20395 1.44271
-9.82895 7.42928 1.41905
-9.82895 7.65461 1.39493
-9.82895 7.87993 1.37036
-9.82895 8.10526 1.34537
-9.82895 8.33059 1.31995
-9.82895 8.55592 1.29414
-9.82895 8.78125 1.26793
-9.82895 9.00658 1.24134
-9.82895 9.2319 1.2144
-9.82895 9.45723 1.1871
-9.82895 9.68256 1.15946
-9.82895 9.90789 1.13149
-9.82895 10.1332 1.1032
-9.82895 10.3585 1.07461
-9.82895 10.5839 1.04572
-9.82895 10.8092 1.01655
-9.82895 11.0345 0.987099
-9.82895 11.2599 0.95738
-9.82895 11.4852 0.927403
-9.82895 11.7105 0.897177
-9.32895 -11.949 0.919909
-9.32895 -11.7237 0.951027
-9.32895 -11.4984 0.981914
-9.32895 -11.273 1.01256
-9.32895 -11.0477 1.04296
-9.32895 -10.8224 1.0731
-9.32895 -10.597 1.10298
-9.32895 -10.3717 1.13258
-9.32895 -10.1464 1.16189
-9.32895 -9.92105 1.19091
-9.32895 -9.69572 1.21962
-9.32895 -9.47039 1.24801
-9.32895 -9.24507 1.27607
-9.32895 -9.01974 1.30378
-9.32895 -8.79441 1.33114
-9.32895 -8.56908 1.35814
-9.32895 -8.34375 1.38475
-9.32895 -8.11842 1.41096
-9.32895 -7.89309 1.43676
-9.32895 -7.66776 1.46214
-9.32895 -7.44243 1.48707
-9.32895 -7.2171 1.51155
-9.32895 -6.99178 1.53556
-9.32895 -6.76645 1.55907
-9.32895 -6.54112 1.58208
-9.32895 -6.31579 1.60456
-9.32895 -6.09046 1.6265
-9.32895 -5.86513 1.64787
-9.32895 -5.6398 1.66867
-9.32895 -5.41447 1.68886
-9.32895 -5.18914 1.70844
-9.32895 -4.96381 1.72738
-9.32895 -4.73848 1.74566
-9.32895 -4.51315 1.76326
-9.32895 -4.28782 1.78016
-9.32895 -4.06249 1.79634
-9.32895 -3.83716 1.81179
-9.32895 -3.61183 1.82648
-9.32895 -3.38651 1.8404
-9.32895 -3.16118 1.85351
-9.32895 -2.93585 1.86582
-9.32895 -2.71052 1.8773
-9.32895 -2.48519 1.88793
-9.32895 -2.25986 1.89769
-9.32895 -2.03453 1.90658
-9.32895 -1.8092 1.91457
-9.32895 -1.58387 1.92166
-9.32895 -1.35854 1.92783
-9.32895 -1.13321 1.93308
-9.32895 -0.907882 1.93738
-9.32895 -0.682552 1.94075
-9.32895 -0.457223 1.94317
-9.32895 -0.231894 1.94463
-9.32895 -0.00656414 1.94513
-9.32895 0.218765 1.94468
-9.32895 0.444095 1.94328
-9.32895 0.669424 1.94092
-9.32895 0.894753 1.93761
-9.32895 1.12008 1.93335
-9.32895 1.34541 1.92816
-9.32895 1.57074 1.92204
-9.32895 1.79607 1.91501
-9.32895 2.02139 1.90707
-9.32895 2.24672 1.89823
-9.32895 2.47205 1.88852
-9.32895 2.69738 1.87794
-9.32895 2.92271 1.86651
-9.32895 3.14804 1.85425
-9.32895 3.37337 1.84118
-9.32895 3.59869 1.82731
-9.32895 3.82402 1.81267
-9.32895 4.04935 1.79727
-9.32895 4.27468 1.78112
-9.32895 4.50001 1.76426
-9.32895 4.72534 1.7467
-9.32895 4.95066 1.72846
-9.32895 5.17599 1.70956
-9.32895 5.40132 1.69002
-9.32895 5.62665 1.66986
-9.32895 5.85198 1.6491
-9.32895 6.07731 1.62776
-9.32895 6.30264 1.60585
-9.32895 6.52796 1.5834
-9.32895 6.75329 1.56043
-9.32895 6.97862 1.53694
-9.32895 7.20395 1.51297
-9.32895 7.42928 1.48852
-9.32895 7.65461 1.46361
-9.32895 7.87993 1.43826
-9.32895 8.10526 1.41248
-9.32895 8.33059 1.38629
-9.32895 8.55592 1.3597
-9.32895 8.78125 1.33273
-9.32895 9.00658 1.30539
-9.32895 9.2319 1.2777
-9.32895 9.45723 1.24966
-9.32895 9.68256 1.22129
-9.32895 9.90789 1.19259
-9.32895 10.1332 1.1636
-9.32895 10.3585 1.1343
-9.32895 10.5839 1.10472
-9.32895 10.8092 1.07486
-9.32895 11.0345 1.04473
-9.32895 11.2599 1.01434
-9.32895 11.4852 0.983711
-9.32895 11.7105 0.952838
-9.32895 11.9358 0.921734
-9.32895 12.1612 0.890406
-8.82895 -12.3997 0.908947
-8.82895 -12.1743 0.941123
-8.82895 -11.949 0.973094
-8.82895 -11.7237 1.00485
-8.82895 -11.4984 1.03639
-8.82895 -11.273 1.0677
-8.82895 -11.0477 1.09878
-8.82895 -10.8224 1.1296
-8.82895 -10.597 1.16018
-8.82895 -10.3717 1.19048
-8.82895 -10.1464 1.22051
-8.82895 -9.92105 1.25026
-8.82895 -9.69572 1.27971
-8.82895 -9.47039 1.30885
-8.82895 -9.24507 1.33766
-8.82895 -9.01974 1.36615
-8.82895 -8.79441 1.39429
-8.82895 -8.56908 1.42207
-8.82895 -8.34375 1.44947
-8.82895 -8.11842 1.47649
-8.82895 -7.89309 1.50311
-8.82895 -7.66776 1.5293
-8.82895 -7.44243 1.55506
-8.82895 -7.2171 1.58037
-8.82895 -6.99178 1.60521
-8.82895 -6.76645 1.62956
-8.82895 -6.54112 1.65341
-8.82895 -6.31579 1.67673
-8.82895 -6.09046 1.6995
-8.82895 -5.86513 1.72172
-8.82895 -5.6398 1.74334
-8.82895 -5.41447 1.76437
-8.82895 -5.18914 1.78476
-8.82895 -4.96381 1.80451
-8.82895 -4.73848 1.82359
-8.82895 -4.51315 1.84198
-8.82895 -4.28782 1.85965
-8.82895 -4.06249 1.87659
-8.82895 -3.83716 1.89277
-8.82895 -3.61183 1.90817
-8.82895 -3.38651 1.92277
-8.82895 -3.16118 1.93654
-8.82895 -2.93585 1.94947
-8.82895 -2.71052 1.96154
-8.82895 -2.48519 1.97272
-8.82895 -2.25986 1.983
-8.82895 -2.03453 1.99237
-8.82895 -1.8092 2.00079
-8.82895 -1.58387 2.00827
-8.82895 -1.35854 2.01478
-8.82895 -1.13321 2.02032
-8.82895 -0.907882 2.02487
-8.82895 -0.682552 2.02842
-8.82895 -0.457223 2.03097
-8.82895 -0.231894 2.03252
-8.82895 -0.00656414 2.03305
-8.82895 0.218765 2.03258
-8.82895 0.444095 2.03109
-8.82895 0.669424 2.0286
-8.82895 0.894753 2.0251
-8.82895 1.12008 2.02061
-8.82895 1.34541 2.01513
-8.82895 1.57074 2.00868
-8.82895 1.79607 2.00126
-8.82895 2.02139 1.99288
-8.82895 2.24672 1.98358
-8.82895 2.47205 1.97335
-8.82895 2.69738 1.96222
-8.82895 2.92271 1.9502
-8.82895 3.14804 1.93732
-8.82895 3.37337 1.92359
-8.82895 3.59869 1.90904
-8.82895 3.82402 1.89369
-8.82895 4.04935 1.87756
-8.82895 4.27468 1.86066
-8.82895 4.50001 1.84303
-8.82895 4.72534 1.82468
-8.82895 4.95066 1.80565
-8.82895 5.17599 1.78594
-8.82895 5.40132 1.76558
-8.82895 5.62665 1.74459
-8.82895 5.85198 1.72299
-8.82895 6.07731 1.70082
-8.82895 6.30264 1.67807
-8.82895 6.52796 1.65478
-8.82895 6.75329 1.63097
-8.82895 6.97862 1.60664
-8.82895 7.20395 1.58183
-8.82895 7.42928 1.55655
-8.82895 7.65461 1.53082
-8.82895 7.87993 1.50465
-8.82895 8.10526 1.47806
-8.82895 8.33059 1.45106
-8.82895 8.55592 1.42368
-8.82895 8.78125 1.39592
-8.82895 9.00658 1.3678
-8.82895 9.2319 1.33934
-8.82895 9.45723 1.31054
-8.82895 9.68256 1.28142
-8.82895 9.90789 1.25199
-8.82895 10.1332 1.22226
-8.82895 10.3585 1.19224
-8.82895 10.5839 1.16195
-8.82895 10.8092 1.1314
-8.82895 11.0345 1.10058
-8.82895 11.2599 1.06953
-8.82895 11.4852 1.03823
-8.82895 11.7105 1.0067
-8.82895 11.9358 0.974956
-8.82895 12.1612 0.942997
-8.82895 12.3865 0.910833
-8.32895 -12.8503 0.892822
-8.32895 -12.625 0.925984
-8.32895 -12.3997 0.958966
-8.32895 -12.1743 0.991762
-8.32895 -11.949 1.02437
-8.32895 -11.7237 1.05677
-8.32895 -11.4984 1.08896
-8.32895 -11.273 1.12094
-8.32895 -11.0477 1.15269
-8.32895 -10.8224 1.18421
-8.32895 -10.597 1.21549
-8.32895 -10.3717 1.24651
-8.32895 -10.1464 1.27727
-8.32895 -9.92105 1.30776
-8.32895 -9.69572 1.33796
-8.32895 -9.47039 1.36787
-8.32895 -9.24507 1.39746
-8.32895 -9.01974 1.42674
-8.32895 -8.79441 1.45567
-8.32895 -8.56908 1.48427
-8.32895 -8.34375 1.51249
-8.32895 -8.11842 1.54034
-8.32895 -7.89309 1.5678
-8.32895 -7.66776 1.59485
-8.32895 -7.44243 1.62147
-8.32895 -7.2171 1.64764
-8.32895 -6.99178 1.67335
-8.32895 -6.76645 1.69858
-8.32895 -6.54112 1.72331
-8.32895 -6.31579 1.74752
-8.32895 -6.09046 1.77119
-8.32895 -5.86513 1.79429
-8.32895 -5.6398 1.8168
-8.32895 -5.41447 1.83871
-8.32895 -5.18914 1.85999
-8.32895 -4.96381 1.88061
-8.32895 -4.73848 1.90055
-8.32895 -4.51315 1.91978
-8.32895 -4.28782 1.93829
-8.32895 -4.06249 1.95605
-8.32895 -3.83716 1.97302
-8.32895 -3.61183 1.9892
-8.32895 -3.38651 2.00454
-8.32895 -3.16118 2.01904
-8.32895 -2.93585 2.03265
-8.32895 -2.71052 2.04537
-8.32895 -2.48519 2.05717
-8.32895 -2.25986 2.06802
-8.32895 -2.03453 2.07791
-8.32895 -1.8092 2.08682
-8.32895 -1.58387 2.09473
-8.32895 -1.35854 2.10162
-8.32895 -1.13321 2.10748
-8.32895 -0.907882 2.1123
-8.32895 0.894753 2.11255
-8.32895 1.12008 2.10779
-8.32895 1.34541 2.10199
-8.32895 1.57074 2.09516
-8.32895 1.79607 2.08731
-8.32895 2.02139 2.07846
-8.32895 2.24672 2.06862
-8.32895 2.47205 2.05783
-8.32895 2.69738 2.04608
-8.32895 2.92271 2.03342
-8.32895 3.14804 2.01985
-8.32895 3.37337 2.00541
-8.32895 3.59869 1.99011
-8.32895 3.82402 1.97399
-8.32895 4.04935 1.95706
-8.32895 4.27468 1.93935
-8.32895 4.50001 1.92088
-8.32895 4.72534 1.90169
-8.32895 4.95066 1.88179
-8.32895 5.17599 1.86121
-8.32895 5.40132 1.83997
-8.32895 5.62665 1.8181
-8.32895 5.85198 1.79562
-8.32895 6.07731 1.77255
-8.32895 6.30264 1.74892
-8.32895 6.52796 1.72474
-8.32895 6.75329 1.70004
-8.32895 6.97862 1.67484
-8.32895 7.20395 1.64916
-8.32895 7.42928 1.62301
-8.32895 7.65461 1.59641
-8.32895 7.87993 1.56939
-8.32895 8.10526 1.54196
-8.32895 8.33059 1.51413
-8.32895 8.55592 1.48592
-8.32895 8.78125 1.45735
-8.32895 9.00658 1.42843
-8.32895 9.2319 1.39918
-8.32895 9.45723 1.3696
-8.32895 9.68256 1.33972
-8.32895 9.90789 1.30953
-8.32895 10.1332 1.27906
-8.32895 10.3585 1.24832
-8.32895 10.5839 1.21731
-8.32895 10.8092 1.18605
-8.32895 11.0345 1.15454
-8.32895 11.2599 1.1228
-8.32895 11.4852 1.09084
-8.32895 11.7105 1.05866
-8.32895 11.9358 1.02626
-8.32895 12.1612 0.993673
-8.32895 12.3865 0.960887
-8.32895 12.6118 0.927916
-8.32895 12.8372 0.894765
-7.82895 -13.0757 0.905697
-7.82895 -12.8503 0.939613
-7.82895 -12.625 0.973368
-7.82895 -12.3997 1.00696
-7.82895 -12.1743 1.04037
-7.82895 -11.949 1.07361
-7.82895 -11.7237 1.10665
-7.82895 -11.4984 1.1395
-7.82895 -11.273 1.17215
-7.82895 -11.0477 1.20459
-7.82895 -10.8224 1.2368
-7.82895 -10.597 1.26879
-7.82895 -10.3717 1.30053
-7.82895 -10.1464 1.33203
-7.82895 -9.92105 1.36327
-7.82895 -9.69572 1.39424
-7.82895 -9.47039 1.42492
-7.82895 -9.24507 1.45531
-7.82895 -9.01974 1.48539
-7.82895 -8.79441 1.51515
-7.82895 -8.56908 1.54457
-7.82895 -8.34375 1.57364
-7.82895 -8.11842 1.60235
-7.82895 -7.89309 1.63068
-7.82895 -7.66776 1.65861
-7.82895 -7.44243 1.68612
-7.82895 -7.2171 1.7132
-7.82895 -6.99178 1.73983
-7.82895 -6.76645 1.76598
-7.82895 -6.54112 1.79164
-7.82895 -6.31579 1.81678
-7.82895 -6.09046 1.84138
-7.82895 -5.86513 1.86543
-7.82895 -5.6398 1.88889
-7.82895 -5.41447 1.91174
-7.82895 -5.18914 1.93395
-7.82895 -4.96381 1.95551
-7.82895 -4.73848 1.97638
-7.82895 -4.51315 1.99653
-7.82895 -4.28782 2.01595
-7.82895 -4.06249 2.03459
-7.82895 -3.83716 2.05243
-7.82895 -3.61183 2.06945
-7.82895 -3.38651 2.08562
-7.82895 -3.16118 2.10091
-7.82895 3.14804 2.10177
-7.82895 3.37337 2.08654
-7.82895 3.59869 2.07042
-7.82895 3.82402 2.05345
-7.82895 4.04935 2.03565
-7.82895 4.27468 2.01705
-7.82895 4.50001 1.99769
-7.82895 4.72534 1.97757
-7.82895 4.95066 1.95675
-7.82895 5.17599 1.93523
-7.82895 5.40132 1.91305
-7.82895 5.62665 1.89024
-7.82895 5.85198 1.86681
-7.82895 6.07731 1.8428
-7.82895 6.30264 1.81823
-7.82895 6.52796 1.79312
-7.82895 6.75329 1.76749
-7.82895 6.97862 1.74137
-7.82895 7.20395 1.71477
-7.82895 7.42928 1.68772
-7.82895 7.65461 1.66023
-7.82895 7.87993 1.63232
-7.82895 8.10526 1.60402
-7.82895 8.33059 1.57533
-7.82895 8.55592 1.54628
-7.82895 8.78125 1.51687
-7.82895 9.00658 1.48713
-7.82895 9.2319 1.45707
-7.82895 9.45723 1.4267
-7.82895 9.68256 1.39604
-7.82895 9.90789 1.36509
-7.82895 10.1332 1.33386
-7.82895 10.3585 1.30238
-7.82895 10.5839 1.27065
-7.82895 10.8092 1.23868
-7.82895 11.0345 1.20647
-7.82895 11.2599 1.17405
-7.82895 11.4852 1.14142
-7.82895 11.7105 1.10858
-7.82895 11.9358 1.07554
-7.82895 12.1612 1.04232
-7.82895 12.3865 1.00891
-7.82895 12.6118 0.975335
-7.82895 12.8372 0.94159
-7.82895 13.0625 0.907683
-7.32895 -13.301 0.915149
-7.32895 -13.0757 0.949782
-7.32895 -12.8503 0.984272
-7.32895 -12.625 1.01861
-7.32895 -12.3997 1.0528
-7.32895 -12.1743 1.08683
-7.32895 -11.949 1.12069
-7.32895 -11.7237 1.15438
-7.32895 -11.4984 1.18788
-7.32895 -11.273 1.2212
-7.32895 -11.0477 1.25432
-7.32895 -10.8224 1.28723
-7.32895 -10.597 1.31993
-7.32895 -10.3717 1.3524
-7.32895 -10.1464 1.38464
-7.32895 -9.92105 1.41663
-7.32895 -9.69572 1.44837
-7.32895 -9.47039 1.47985
-7.32895 -9.24507 1.51104
-7.32895 -9.01974 1.54194
-7.32895 -8.79441 1.57253
-7.32895 -8.56908 1.60281
-7.32895 -8.34375 1.63275
-7.32895 -8.11842 1.66234
-7.32895 -7.89309 1.69157
-7.32895 -7.66776 1.72041
-7.32895 -7.44243 1.74884
-7.32895 -7.2171 1.77686
-7.32895 -6.99178 1.80444
-7.32895 -6.76645 1.83155
-7.32895 -6.54112 1.85819
-7.32895 -6.31579 1.88431
-7.32895 -6.09046 1.90991
-7.32895 -5.86513 1.93495
-7.32895 -5.6398 1.95941
-7.32895 -5.41447 1.98327
-7.32895 -5.18914 2.00649
-7.32895 -4.96381 2.02905
-7.32895 -4.73848 2.05092
-7.32895 -4.51315 2.07206
-7.32895 -4.28782 2.09246
-7.32895 -4.06249 2.11207
-7.32895 4.04935 2.11319
-7.32895 4.27468 2.09363
-7.32895 4.50001 2.07328
-7.32895 4.72534 2.05217
-7.32895 4.95066 2.03034
-7.32895 5.17599 2.00783
-7.32895 5.40132 1.98464
-7.32895 5.62665 1.96082
-7.32895 5.85198 1.93639
-7.32895 6.07731 1.91139
-7.32895 6.30264 1.88582
-7.32895 6.52796 1.85972
-7.32895 6.75329 1.83312
-7.32895 6.97862 1.80603
-7.32895 7.20395 1.77848
-7.32895 7.42928 1.75049
-7.32895 7.65461 1.72208
-7.32895 7.87993 1.69326
-7.32895 8.10526 1.66406
-7.32895 8.33059 1.63449
-7.32895 8.55592 1.60457
-7.32895 8.78125 1.57431
-7.32895 9.00658 1.54373
-7.32895 9.2319 1.51285
-7.32895 9.45723 1.48168
-7.32895 9.68256 1.45022
-7.32895 9.90789 1.4185
-7.32895 10.1332 1.38652
-7.32895 10.3585 1.35429
-7.32895 10.5839 1.32183
-7.32895 10.8092 1.28915
-7.32895 11.0345 1.25625
-7.32895 11.2599 1.22314
-7.32895 11.4852 1.18983
-7.32895 11.7105 1.15634
-7.32895 11.9358 1.12266
-7.32895 12.1612 1.08881
-7.32895 12.3865 1.0548
-7.32895 12.6118 1.02062
-7.32895 12.8372 0.986283
-7.32895 13.0625 0.951801
-7.32895 13.2878 0.917177
-6.82895 -13.5263 0.921141
-6.82895 -13.301 0.95645
-6.82895 -13.0757 0.991635
-6.82895 -12.8503 1.02669
-6.82895 -12.625 1.06161
-6.82895 -12.3997 1.09639
-6.82895 -12.1743 1.13102
-6.82895 -11.949 1.1655
-6.82895 -11.7237 1.19982
-6.82895 -11.4984 1.23397
-6.82895 -11.273 1.26795
-6.82895 -11.0477 1.30174
-6.82895 -10.8224 1.33535
-6.82895 -10.597 1.36876
-6.82895 -10.3717 1.40196
-6.82895 -10.1464 1.43494
-6.82895 -9.92105 1.46769
-6.82895 -9.69572 1.50021
-6.82895 -9.47039 1.53248
-6.82895 -9.24507 1.56448
-6.82895 -9.01974 1.59621
-6.82895 -8.79441 1.62766
-6.82895 -8.56908 1.6588
-6.82895 -8.34375 1.68962
-6.82895 -8.11842 1.72011
-6.82895 -7.89309 1.75026
-6.82895 -7.66776 1.78004
-6.82895 -7.44243 1.80943
-6.82895 -7.2171 1.83842
-6.82895 -6.99178 1.86698
-6.82895 -6.76645 1.8951
-6.82895 -6.54112 1.92275
-6.82895 -6.31579 1.94991
-6.82895 -6.09046 1.97655
-6.82895 -5.86513 2.00264
-6.82895 -5.6398 2.02817
-6.82895 -5.41447 2.05309
-6.82895 -5.18914 2.07739
-6.82895 -4.96381 2.10103
-6.82895 4.95066 2.10238
-6.82895 5.17599 2.07879
-6.82895 5.40132 2.05453
-6.82895 5.62665 2.02964
-6.82895 5.85198 2.00415
-6.82895 6.07731 1.97808
-6.82895 6.30264 1.95148
-6.82895 6.52796 1.92435
-6.82895 6.75329 1.89673
-6.82895 6.97862 1.86864
-6.82895 7.20395 1.8401
-6.82895 7.42928 1.81113
-6.82895 7.65461 1.78176
-6.82895 7.87993 1.75201
-6.82895 8.10526 1.72188
-6.82895 8.33059 1.69141
-6.82895 8.55592 1.66061
-6.82895 8.78125 1.62948
-6.82895 9.00658 1.59806
-6.82895 9.2319 1.56634
-6.82895 9.45723 1.53435
-6.82895 9.68256 1.5021
-6.82895 9.90789 1.4696
-6.82895 10.1332 1.43686
-6.82895 10.3585 1.40389
-6.82895 10.5839 1.3707
-6.82895 10.8092 1.33731
-6.82895 11.0345 1.30371
-6.82895 11.2599 1.26993
-6.82895 11.4852 1.23596
-6.82895 11.7105 1.20182
-6.82895 11.9358 1.16751
-6.82895 12.1612 1.13304
-6.82895 12.3865 1.09842
-6.82895 12.6118 1.06365
-6.82895 12.8372 1.02873
-6.82895 13.0625 0.993687
-6.82895 13.2878 0.95851
-6.82895 13.5131 0.923208
-6.32895 -13.7516 0.923652
-6.32895 -13.5263 0.959592
-6.32895 -13.301 0.995425
-6.32895 -13.0757 1.03115
-6.32895 -12.8503 1.06675
-6.32895 -12.625 1.10223
-6.32895 -12.3997 1.13759
-6.32895 -12.1743 1.17281
-6.32895 -11.949 1.2079
-6.32895 -11.7237 1.24284
-6.32895 -11.4984 1.27763
-6.32895 -11.273 1.31226
-6.32895 -11.0477 1.34672
-6.32895 -10.8224 1.38101
-6.32895 -10.597 1.41512
-6.32895 -10.3717 1.44904
-6.32895 -10.1464 1.48276
-6.32895 -9.92105 1.51628
-6.32895 -9.69572 1.54957
-6.32895 -9.47039 1.58263
-6.32895 -9.24507 1.61545
-6.32895 -9.01974 1.64801
-6.32895 -8.79441 1.68031
-6.32895 -8.56908 1.71233
-6.32895 -8.34375 1.74405
-6.32895 -8.11842 1.77546
-6.32895 -7.89309 1.80654
-6.32895 -7.66776 1.83728
-6.32895 -7.44243 1.86765
-6.32895 -7.2171 1.89764
-6.32895 -6.99178 1.92722
-6.32895 -6.76645 1.95638
-6.32895 -6.54112 1.98509
-6.32895 -6.31579 2.01332
-6.32895 -6.09046 2.04105
-6.32895 -5.86513 2.06826
-6.32895 -5.6398 2.0949
-6.32895 5.62665 2.09644
-6.32895 5.85198 2.06983
-6.32895 6.07731 2.04265
-6.32895 6.30264 2.01495
-6.32895 6.52796 1.98675
-6.32895 6.75329 1.95807
-6.32895 6.97862 1.92893
-6.32895 7.20395 1.89937
-6.32895 7.42928 1.86941
-6.32895 7.65461 1.83906
-6.32895 7.87993 1.80834
-6.32895 8.10526 1.77728
-6.32895 8.33059 1.74589
-6.32895 8.55592 1.71419
-6.32895 8.78125 1.68219
-6.32895 9.00658 1.64991
-6.32895 9.2319 1.61736
-6.32895 9.45723 1.58455
-6.32895 9.68256 1.55151
-6.32895 9.90789 1.51823
-6.32895 10.1332 1.48473
-6.32895 10.3585 1.45102
-6.32895 10.5839 1.41711
-6.32895 10.8092 1.38301
-6.32895 11.0345 1.34873
-6.32895 11.2599 1.31428
-6.32895 11.4852 1.27965
-6.32895 11.7105 1.24487
-6.32895 11.9358 1.20994
-6.32895 12.1612 1.17487
-6.32895 12.3865 1.13965
-6.32895 12.6118 1.1043
-6.32895 12.8372 1.06883
-6.32895 13.0625 1.03323
-6.32895 13.2878 0.997516
-6.32895 13.5131 0.96169
-6.32895 13.7385 0.925755
-5.82895 -13.977 0.92267
-5.82895 -13.7516 0.959194
-5.82895 -13.5263 0.995628
-5.82895 -13.301 1.03197
-5.82895 -13.0757 1.06821
-5.82895 -12.8503 1.10434
-5.82895 -12.625 1.14037
-5.82895 -12.3997 1.17629
-5.82895 -12.1743 1.21208
-5.82895 -11.949 1.24776
-5.82895 -11.7237 1.2833
-5.82895 -11.4984 1.31871
-5.82895 -11.273 1.35398
-5.82895 -11.0477 1.3891
-5.82895 -10.8224 1.42406
-5.82895 -10.597 1.45886
-5.82895 -10.3717 1.49349
-5.82895 -10.1464 1.52794
-5.82895 -9.92105 1.5622
-5.82895 -9.69572 1.59626
-5.82895 -9.47039 1.63011
-5.82895 -9.24507 1.66374
-5.82895 -9.01974 1.69714
-5.82895 -8.79441 1.73029
-5.82895 -8.56908 1.76319
-5.82895 -8.34375 1.79581
-5.82895 -8.11842 1.82814
-5.82895 -7.89309 1.86018
-5.82895 -7.66776 1.89188
-5.82895 -7.44243 1.92325
-5.82895 -7.2171 1.95426
-5.82895 -6.99178 1.98489
-5.82895 -6.76645 2.01512
-5.82895 -6.54112 2.04492
-5.82895 -6.31579 2.07427
-5.82895 -6.09046 2.10315
-5.82895 6.07731 2.10482
-5.82895 6.30264 2.07597
-5.82895 6.52796 2.04665
-5.82895 6.75329 2.01687
-5.82895 6.97862 1.98667
-5.82895 7.20395 1.95606
-5.82895 7.42928 1.92507
-5.82895 7.65461 1.89373
-5.82895 7.87993 1.86204
-5.82895 8.10526 1.83002
-5.82895 8.33059 1.79771
-5.82895 8.55592 1.7651
-5.82895 8.78125 1.73222
-5.82895 9.00658 1.69908
-5.82895 9.2319 1.6657
-5.82895 9.45723 1.63208
-5.82895 9.68256 1.59825
-5.82895 9.90789 1.5642
-5.82895 10.1332 1.52995
-5.82895 10.3585 1.49551
-5.82895 10.5839 1.46089
-5.82895 10.8092 1.4261
-5.82895 11.0345 1.39115
-5.82895 11.2599 1.35604
-5.82895 11.4852 1.32078
-5.82895 11.7105 1.28538
-5.82895 11.9358 1.24984
-5.82895 12.1612 1.21417
-5.82895 12.3865 1.17838
-5.82895 12.6118 1.14247
-5.82895 12.8372 1.10645
-5.82895 13.0625 1.07032
-5.82895 13.2878 1.03409
-5.82895 13.5131 0.997755
-5.82895 13.7385 0.961327
-5.82895 13.9638 0.924807
-5.32895 -14.2023 0.918199
-5.32895 -13.977 0.955259
-5.32895 -13.7516 0.992242
-5.32895 -13.5263 1.02915
-5.32895 -13.301 1.06597
-5.32895 -13.0757 1.1027
-5.32895 -12.8503 1.13935
-5.32895 -12.625 1.1759
-5.32895 -12.3997 1.21236
-5.32895 -12.1743 1.24871
-5.32895 -11.949 1.28495
-5.32895 -11.7237 1.32108
-5.32895 -11.4984 1.35709
-5.32895 -11.273 1.39297
-5.32895 -11.0477 1.42873
-5.32895 -10.8224 1.46434
-5.32895 -10.597 1.49981
-5.32895 -10.3717 1.53514
-5.32895 -10.1464 1.5703
-5.32895 -9.92105 1.60529
-5.32895 -9.69572 1.6401
-5.32895 -9.47039 1.67473
-5.32895 -9.24507 1.70916
-5.32895 -9.01974 1.74338
-5.32895 -8.79441 1.77738
-5.32895 -8.56908 1.81115
-5.32895 -8.34375 1.84467
-5.32895 -8.11842 1.87793
-5.32895 -7.89309 1.91091
-5.32895 -7.66776 1.9436
-5.32895 -7.44243 1.97598
-5.32895 -7.2171 2.00802
-5.32895 -6.99178 2.03972
-5.32895 -6.76645 2.07104
-5.32895 -6.54112 2.10196
-5.32895 6.52796 2.10376
-5.32895 6.75329 2.07286
-5.32895 6.97862 2.04156
-5.32895 7.20395 2.00988
-5.32895 7.42928 1.97786
-5.32895 7.65461 1.9455
-5.32895 7.87993 1.91283
-5.32895 8.10526 1.87986
-5.32895 8.33059 1.84662
-5.32895 8.55592 1.81311
-5.32895 8.78125 1.77936
-5.32895 9.00658 1.74537
-5.32895 9.2319 1.71116
-5.32895 9.45723 1.67675
-5.32895 9.68256 1.64213
-5.32895 9.90789 1.60733
-5.32895 10.1332 1.57234
-5.32895 10.3585 1.53719
-5.32895 10.5839 1.50188
-5.32895 10.8092 1.46642
-5.32895 11.0345 1.43081
-5.32895 11.2599 1.39506
-5.32895 11.4852 1.35919
-5.32895 11.7105 1.32318
-5.32895 11.9358 1.28706
-5.32895 12.1612 1.25083
-5.32895 12.3865 1.21448
-5.32895 12.6118 1.17804
-5.32895 12.8372 1.14149
-5.32895 13.0625 1.10485
-5.32895 13.2878 1.06812
-5.32895 13.5131 1.0313
-5.32895 13.7385 0.994402
-5.32895 13.9638 0.957423
-5.32895 14.1891 0.920368
-4.82895 -14.4276 0.910258
-4.82895 -14.2023 0.947801
-4.82895 -13.977 0.985282
-4.82895 -13.7516 1.0227
-4.82895 -13.5263 1.06005
-4.82895 -13.301 1.09733
-4.82895 -13.0757 1.13453
-4.82895 -12.8503 1.17166
-4.82895 -12.625 1.20871
-4.82895 -12.3997 1.24568
-4.82895 -12.1743 1.28255
-4.82895 -11.949 1.31933
-4.82895 -11.7237 1.35602
-4.82895 -11.4984 1.3926
-4.82895 -11.273 1.42908
-4.82895 -11.0477 1.46544
-4.82895 -10.8224 1.50169
-4.82895 -10.597 1.53781
-4.82895 -10.3717 1.57379
-4.82895 -10.1464 1.60964
-4.82895 -9.92105 1.64534
-4.82895 -9.69572 1.68089
-4.82895 -9.47039 1.71627
-4.82895 -9.24507 1.75148
-4.82895 -9.01974 1.78651
-4.82895 -8.79441 1.82134
-4.82895 -8.56908 1.85597
-4.82895 -8.34375 1.89037
-4.82895 -8.11842 1.92455
-4.82895 -7.89309 1.95847
-4.82895 -7.66776 1.99214
-4.82895 -7.44243 2.02552
-4.82895 -7.2171 2.05861
-4.82895 -6.99178 2.09137
-4.82895 6.97862 2.09328
-4.82895 7.20395 2.06053
-4.82895 7.42928 2.02746
-4.82895 7.65461 1.99409
-4.82895 7.87993 1.96045
-4.82895 8.10526 1.92653
-4.82895 8.33059 1.89237
-4.82895 8.55592 1.85798
-4.82895 8.78125 1.82337
-4.82895 9.00658 1.78855
-4.82895 9.2319 1.75353
-4.82895 9.45723 1.71834
-4.82895 9.68256 1.68296
-4.82895 9.90789 1.64743
-4.82895 10.1332 1.61173
-4.82895 10.3585 1.57589
-4.82895 10.5839 1.53991
-4.82895 10.8092 1.5038
-4.82895 11.0345 1.46756
-4.82895 11.2599 1.43121
-4.82895 11.4852 1.39474
-4.82895 11.7105 1.35816
-4.82895 11.9358 1.32148
-4.82895 12.1612 1.2847
-4.82895 12.3865 1.24783
-4.82895 12.6118 1.21087
-4.82895 12.8372 1.17383
-4.82895 13.0625 1.13671
-4.82895 13.2878 1.0995
-4.82895 13.5131 1.06223
-4.82895 13.7385 1.02488
-4.82895 13.9638 0.987471
-4.82895 14.1891 0.949993
-4.82895 14.4145 0.912454
-4.32895 -14.653 0.898876
-4.32895 -14.4276 0.93685
-4.32895 -14.2023 0.974776
-4.32895 -13.977 1.01265
-4.32895 -13.7516 1.05047
-4.32895 -13.5263 1.08824
-4.32895 -13.301 1.12594
-4.32895 -13.0757 1.16359
-4.32895 -12.8503 1.20117
-4.32895 -12.625 1.23868
-4.32895 -12.3997 1.27613
-4.32895 -12.1743 1.3135
-4.32895 -11.949 1.35079
-4.32895 -11.7237 1.388
-4.32895 -11.4984 1.42513
-4.32895 -11.273 1.46216
-4.32895 -11.0477 1.4991
-4.32895 -10.8224 1.53594
-4.32895 -10.597 1.57267
-4.32895 -10.3717 1.6093
-4.32895 -10.1464 1.6458
-4.32895 -9.92105 1.68218
-4.32895 -9.69572 1.71843
-4.32895 -9.47039 1.75454
-4.32895 -9.24507 1.7905
-4.32895 -9.01974 1.8263
-4.32895 -8.79441 1.86193
-4.32895 -8.56908 1.89739
-4.32895 -8.34375 1.93266
-4.32895 -8.11842 1.96773
-4.32895 -7.89309 2.00258
-4.32895 -7.66776 2.0372
-4.32895 -7.44243 2.07158
-4.32895 -7.2171 2.10569
-4.32895 7.20395 2.10768
-4.32895 7.42928 2.07358
-4.32895 7.65461 2.03922
-4.32895 7.87993 2.00461
-4.32895 8.10526 1.96977
-4.32895 8.33059 1.93471
-4.32895 8.55592 1.89946
-4.32895 8.78125 1.86401
-4.32895 9.00658 1.82838
-4.32895 9.2319 1.79259
-4.32895 9.45723 1.75664
-4.32895 9.68256 1.72054
-4.32895 9.90789 1.6843
-4.32895 10.1332 1.64793
-4.32895 10.3585 1.61143
-4.32895 10.5839 1.57482
-4.32895 10.8092 1.53809
-4.32895 11.0345 1.50125
-4.32895 11.2599 1.46432
-4.32895 11.4852 1.42729
-4.32895 11.7105 1.39017
-4.32895 11.9358 1.35297
-4.32895 12.1612 1.31568
-4.32895 12.3865 1.27831
-4.32895 12.6118 1.24087
-4.32895 12.8372 1.20336
-4.32895 13.0625 1.16579
-4.32895 13.2878 1.12814
-4.32895 13.5131 1.09044
-4.32895 13.7385 1.05268
-4.32895 13.9638 1.01486
-4.32895 14.1891 0.976991
-4.32895 14.4145 0.939069
-4.32895 14.6398 0.901098
-3.82895 -14.653 0.922451
-3.82895 -14.4276 0.960766
-3.82895 -14.2023 0.999042
-3.82895 -13.977 1.03728
-3.82895 -13.7516 1.07547
-3.82895 -13.5263 1.11362
-3.82895 -13.301 1.15172
-3.82895 -13.0757 1.18977
-3.82895 -12.8503 1.22776
-3.82895 -12.625 1.26571
-3.82895 -12.3997 1.3036
-3.82895 -12.1743 1.34142
-3.82895 -11.949 1.37919
-3.82895 -11.7237 1.41689
-3.82895 -11.4984 1.45451
-3.82895 -11.273 1.49207
-3.82895 -11.0477 1.52955
-3.82895 -10.8224 1.56694
-3.82895 -10.597 1.60425
-3.82895 -10.3717 1.64147
-3.82895 -10.1464 1.67859
-3.82895 -9.92105 1.7156
-3.82895 -9.69572 1.75251
-3.82895 -9.47039 1.78931
-3.82895 -9.24507 1.82598
-3.82895 -9.01974 1.86252
-3.82895 -8.79441 1.89892
-3.82895 -8.56908 1.93517
-3.82895 -8.34375 1.97126
-3.82895 -8.11842 2.00719
-3.82895 -7.89309 2.04293
-3.82895 -7.66776 2.07848
-3.82895 -7.44243 2.11382
-3.82895 7.65461 2.08055
-3.82895 7.87993 2.04501
-3.82895 8.10526 2.00928
-3.82895 8.33059 1.97336
-3.82895 8.55592 1.93728
-3.82895 8.78125 1.90104
-3.82895 9.00658 1.86465
-3.82895 9.2319 1.82811
-3.82895 9.45723 1.79145
-3.82895 9.68256 1.75467
-3.82895 9.90789 1.71776
-3.82895 10.1332 1.68075
-3.82895 10.3585 1.64364
-3.82895 10.5839 1.60643
-3.82895 10.8092 1.56912
-3.82895 11.0345 1.53173
-3.82895 11.2599 1.49426
-3.82895 11.4852 1.45671
-3.82895 11.7105 1.41909
-3.82895 11.9358 1.38139
-3.82895 12.1612 1.34363
-3.82895 12.3865 1.30581
-3.82895 12.6118 1.26792
-3.82895 12.8372 1.22998
-3.82895 13.0625 1.19199
-3.82895 13.2878 1.15394
-3.82895 13.5131 1.11584
-3.82895 13.7385 1.0777
-3.82895 13.9638 1.03951
-3.82895 14.1891 1.00128
-3.82895 14.4145 0.963005
-3.82895 14.6398 0.924692
-3.32895 -14.8783 0.904658
-3.32895 -14.653 0.943309
-3.32895 -14.4276 0.981931
-3.32895 -14.2023 1.02052
-3.32895 -13.977 1.05908
-3.32895 -13.7516 1.09761
-3.32895 -13.5263 1.1361
-3.32895 -13.301 1.17456
-3.32895 -13.0757 1.21297
-3.32895 -12.8503 1.25135
-3.32895 -12.625 1.28968
-3.32895 -12.3997 1.32797
-3.32895 -12.1743 1.36622
-3.32895 -11.949 1.40441
-3.32895 -11.7237 1.44255
-3.32895 -11.4984 1.48064
-3.32895 -11.273 1.51867
-3.32895 -11.0477 1.55664
-3.32895 -10.8224 1.59454
-3.32895 -10.597 1.63237
-3.32895 -10.3717 1.67014
-3.32895 -10.1464 1.70783
-3.32895 -9.92105 1.74543
-3.32895 -9.69572 1.78295
-3.32895 -9.47039 1.82038
-3.32895 -9.24507 1.85771
-3.32895 -9.01974 1.89493
-3.32895 -8.79441 1.93205
-3.32895 -8.56908 1.96904
-3.32895 -8.34375 2.00591
-3.32895 -8.11842 2.04264
-3.32895 -7.89309 2.07922
-3.32895 7.87993 2.08136
-3.32895 8.10526 2.04478
-3.32895 8.33059 2.00806
-3.32895 8.55592 1.9712
-3.32895 8.78125 1.93421
-3.32895 9.00658 1.8971
-3.32895 9.2319 1.85988
-3.32895 9.45723 1.82256
-3.32895 9.68256 1.78514
-3.32895 9.90789 1.74763
-3.32895 10.1332 1.71002
-3.32895 10.3585 1.67234
-3.32895 10.5839 1.63458
-3.32895 10.8092 1.59675
-3.32895 11.0345 1.55885
-3.32895 11.2599 1.52089
-3.32895 11.4852 1.48286
-3.32895 11.7105 1.44478
-3.32895 11.9358 1.40664
-3.32895 12.1612 1.36845
-3.32895 12.3865 1.33021
-3.32895 12.6118 1.29192
-3.32895 12.8372 1.25359
-3.32895 13.0625 1.21522
-3.32895 13.2878 1.1768
-3.32895 13.5131 1.13835
-3.32895 13.7385 1.09986
-3.32895 13.9638 1.06134
-3.32895 14.1891 1.02278
-3.32895 14.4145 0.984188
-3.32895 14.6398 0.945568
-3.32895 14.8651 0.906918
-2.82895 -14.8783 0.922472
-2.82895 -14.653 0.961386
-2.82895 -14.4276 1.00028
-2.82895 -14.2023 1.03915
-2.82895 -13.977 1.07799
-2.82895 -13.7516 1.11682
-2.82895 -13.5263 1.15561
-2.82895 -13.301 1.19438
-2.82895 -13.0757 1.23312
-2.82895 -12.8503 1.27183
-2.82895 -12.625 1.31051
-2.82895 -12.3997 1.34916
-2.82895 -12.1743 1.38777
-2.82895 -11.949 1.42634
-2.82895 -11.7237 1.46488
-2.82895 -11.4984 1.50337
-2.82895 -11.273 1.54183
-2.82895 -11.0477 1.58023
-2.82895 -10.8224 1.61859
-2.82895 -10.597 1.6569
-2.82895 -10.3717 1.69515
-2.82895 -10.1464 1.73335
-2.82895 -9.92105 1.77148
-2.82895 -9.69572 1.80955
-2.82895 -9.47039 1.84755
-2.82895 -9.24507 1.88548
-2.82895 -9.01974 1.92333
-2.82895 -8.79441 1.96109
-2.82895 -8.56908 1.99876
-2.82895 -8.34375 2.03634
-2.82895 -8.11842 2.07381
-2.82895 -7.89309 2.11116
-2.82895 7.87993 2.11334
-2.82895 8.10526 2.07599
-2.82895 8.33059 2.03853
-2.82895 8.55592 2.00096
-2.82895 8.78125 1.96329
-2.82895 9.00658 1.92553
-2.82895 9.2319 1.88769
-2.82895 9.45723 1.84977
-2.82895 9.68256 1.81177
-2.82895 9.90789 1.77371
-2.82895 10.1332 1.73558
-2.82895 10.3585 1.69739
-2.82895 10.5839 1.65914
-2.82895 10.8092 1.62083
-2.82895 11.0345 1.58248
-2.82895 11.2599 1.54407
-2.82895 11.4852 1.50562
-2.82895 11.7105 1.46713
-2.82895 11.9358 1.4286
-2.82895 12.1612 1.39002
-2.82895 12.3865 1.35141
-2.82895 12.6118 1.31277
-2.82895 12.8372 1.27409
-2.82895 13.0625 1.23538
-2.82895 13.2878 1.19665
-2.82895 13.5131 1.15788
-2.82895 13.7385 1.11908
-2.82895 13.9638 1.08026
-2.82895 14.1891 1.04142
-2.82895 14.4145 1.00255
-2.82895 14.6398 0.96366
-2.82895 14.8651 0.924748
-2.32895 -15.1036 0.898334
-2.32895 -14.8783 0.937486
-2.32895 -14.653 0.976624
-2.32895 -14.4276 1.01575
-2.32895 -14.2023 1.05485
-2.32895 -13.977 1.09395
-2.32895 -13.7516 1.13302
-2.32895 -13.5263 1.17208
-2.32895 -13.301 1.21111
-2.32895 -13.0757 1.25013
-2.32895 -12.8503 1.28913
-2.32895 -12.625 1.3281
-2.32895 -12.3997 1.36706
-2.32895 -12.1743 1.40598
-2.32895 -11.949 1.44489
-2.32895 -11.7237 1.48376
-2.32895 -11.4984 1.52261
-2.32895 -11.273 1.56143
-2.32895 -11.0477 1.60022
-2.32895 -10.8224 1.63897
-2.32895 -10.597 1.67768
-2.32895 -10.3717 1.71636
-2.32895 -10.1464 1.755
-2.32895 -9.92105 1.7936
-2.32895 -9.69572 1.83215
-2.32895 -9.47039 1.87065
-2.32895 -9.24507 1.9091
-2.32895 -9.01974 1.94749
-2.32895 -8.79441 1.98582
-2.32895 -8.56908 2.02409
-2.32895 -8.34375 2.06229
-2.32895 -8.11842 2.10041
-2.32895 8.10526 2.10264
-2.32895 8.33059 2.06452
-2.32895 8.55592 2.02632
-2.32895 8.78125 1.98806
-2.32895 9.00658 1.94973
-2.32895 9.2319 1.91134
-2.32895 9.45723 1.87289
-2.32895 9.68256 1.8344
-2.32895 9.90789 1.79585
-2.32895 10.1332 1.75726
-2.32895 10.3585 1.71862
-2.32895 10.5839 1.67994
-2.32895 10.8092 1.64123
-2.32895 11.0345 1.60248
-2.32895 11.2599 1.5637
-2.32895 11.4852 1.52488
-2.32895 11.7105 1.48603
-2.32895 11.9358 1.44716
-2.32895 12.1612 1.40826
-2.32895 12.3865 1.36933
-2.32895 12.6118 1.33038
-2.32895 12.8372 1.29141
-2.32895 13.0625 1.25241
-2.32895 13.2878 1.21339
-2.32895 13.5131 1.17436
-2.32895 13.7385 1.1353
-2.32895 13.9638 1.09623
-2.32895 14.1891 1.05714
-2.32895 14.4145 1.01803
-2.32895 14.6398 0.978911
-2.32895 14.8651 0.939774
-2.32895 15.0904 0.900623
-1.82895 -15.1036 0.910321
-1.82895 -14.8783 0.949651
-1.82895 -14.653 0.988972
-1.82895 -14.4276 1.02828
-1.82895 -14.2023 1.06759
-1.82895 -13.977 1.10688
-1.82895 -13.7516 1.14616
-1.82895 -13.5263 1.18543
-1.82895 -13.301 1.22469
-1.82895 -13.0757 1.26393
-1.82895 -12.8503 1.30317
-1.82895 -12.625 1.34239
-1.82895 -12.3997 1.38159
-1.82895 -12.1743 1.42078
-1.82895 -11.949 1.45995
-1.82895 -11.7237 1.49911
-1.82895 -11.4984 1.53825
-1.82895 -11.273 1.57737
-1.82895 -11.0477 1.61647
-1.82895 -10.8224 1.65555
-1.82895 -10.597 1.69461
-1.82895 -10.3717 1.73364
-1.82895 -10.1464 1.77264
-1.82895 -9.92105 1.81162
-1.82895 -9.69572 1.85057
-1.82895 -9.47039 1.88949
-1.82895 -9.24507 1.92838
-1.82895 -9.01974 1.96723
-1.82895 -8.79441 2.00604
-1.82895 -8.56908 2.04481
-1.82895 -8.34375 2.08354
-1.82895 8.33059 2.0858
-1.82895 8.55592 2.04707
-1.82895 8.78125 2.00831
-1.82895 9.00658 1.9695
-1.82895 9.2319 1.93065
-1.82895 9.45723 1.89176
-1.82895 9.68256 1.85285
-1.82895 9.90789 1.8139
-1.82895 10.1332 1.77492
-1.82895 10.3585 1.73592
-1.82895 10.5839 1.69689
-1.82895 10.8092 1.65783
-1.82895 11.0345 1.61875
-1.82895 11.2599 1.57966
-1.82895 11.4852 1.54054
-1.82895 11.7105 1.5014
-1.82895 11.9358 1.46224
-1.82895 12.1612 1.42307
-1.82895 12.3865 1.38388
-1.82895 12.6118 1.34468
-1.82895 12.8372 1.30546
-1.82895 13.0625 1.26623
-1.82895 13.2878 1.22698
-1.82895 13.5131 1.18772
-1.82895 13.7385 1.14846
-1.82895 13.9638 1.10917
-1.82895 14.1891 1.06988
-1.82895 14.4145 1.03058
-1.82895 14.6398 0.991271
-1.82895 14.8651 0.95195
-1.82895 15.0904 0.912621
-1.32895 -15.1036 0.919461
-1.32895 -14.8783 0.958928
-1.32895 -14.653 0.99839
-1.32895 -14.4276 1.03785
-1.32895 -14.2023 1.0773
-1.32895 -13.977 1.11675
-1.32895 -13.7516 1.15619
-1.32895 -13.5263 1.19562
-1.32895 -13.301 1.23505
-1.32895 -13.0757 1.27447
-1.32895 -12.8503 1.31389
-1.32895 -12.625 1.35329
-1.32895 -12.3997 1.39269
-1.32895 -12.1743 1.43209
-1.32895 -11.949 1.47147
-1.32895 -11.7237 1.51084
-1.32895 -11.4984 1.55021
-1.32895 -11.273 1.58956
-1.32895 -11.0477 1.62891
-1.32895 -10.8224 1.66824
-1.32895 -10.597 1.70756
-1.32895 -10.3717 1.74687
-1.32895 -10.1464 1.78616
-1.32895 -9.92105 1.82544
-1.32895 -9.69572 1.8647
-1.32895 -9.47039 1.90395
-1.32895 -9.24507 1.94317
-1.32895 -9.01974 1.98238
-1.32895 -8.79441 2.02157
-1.32895 -8.56908 2.06074
-1.32895 -8.34375 2.09988
-1.32895 8.33059 2.10216
-1.32895 8.55592 2.06302
-1.32895 8.78125 2.02386
-1.32895 9.00658 1.98467
-1.32895 9.2319 1.94546
-1.32895 9.45723 1.90624
-1.32895 9.68256 1.86699
-1.32895 9.90789 1.82773
-1.32895 10.1332 1.78845
-1.32895 10.3585 1.74916
-1.32895 10.5839 1.70986
-1.32895 10.8092 1.67054
-1.32895 11.0345 1.6312
-1.32895 11.2599 1.59186
-1.32895 11.4852 1.55251
-1.32895 11.7105 1.51314
-1.32895 11.9358 1.47377
-1.32895 12.1612 1.43439
-1.32895 12.3865 1.395
-1.32895 12.6118 1.3556
-1.32895 12.8372 1.31619
-1.32895 13.0625 1.27678
-1.32895 13.2878 1.23735
-1.32895 13.5131 1.19793
-1.32895 13.7385 1.15849
-1.32895 13.9638 1.11905
-1.32895 14.1891 1.07961
-1.32895 14.4145 1.04015
-1.32895 14.6398 1.0007
-1.32895 14.8651 0.961235
-1.32895 15.0904 0.921769
-0.828947 -15.1036 0.925725
-0.828947 -14.8783 0.965286
-0.828947 -14.653 1.00485
-0.828947 -14.4276 1.0444
-0.828947 -14.2023 1.08396
-0.828947 -13.977 1.12351
-0.828947 -13.7516 1.16306
-0.828947 -13.5263 1.20261
-0.828947 -13.301 1.24216
-0.828947 -13.0757 1.2817
-0.828947 -12.8503 1.32124
-0.828947 -12.625 1.36078
-0.828947 -12.3997 1.40031
-0.828947 -12.1743 1.43985
-0.828947 -11.949 1.47937
-0.828947 -11.7237 1.5189
-0.828947 -11.4984 1.55842
-0.828947 -11.273 1.59794
-0.828947 -11.0477 1.63745
-0.828947 -10.8224 1.67696
-0.828947 -10.597 1.71646
-0.828947 -10.3717 1.75596
-0.828947 -10.1464 1.79545
-0.828947 -9.92105 1.83494
-0.828947 -9.69572 1.87442
-0.828947 -9.47039 1.9139
-0.828947 -9.24507 1.95336
-0.828947 -9.01974 1.99282
-0.828947 -8.79441 2.03227
-0.828947 -8.56908 2.07171
-0.828947 -8.34375 2.11115
-0.828947 8.33059 2.11345
-0.828947 8.55592 2.07402
-0.828947 8.78125 2.03458
-0.828947 9.00658 1.99513
-0.828947 9.2319 1.95567
-0.828947 9.45723 1.9162
-0.828947 9.68256 1.87673
-0.828947 9.90789 1.83725
-0.828947 10.1332 1.79776
-0.828947 10.3585 1.75827
-0.828947 10.5839 1.71877
-0.828947 10.8092 1.67927
-0.828947 11.0345 1.63976
-0.828947 11.2599 1.60025
-0.828947 11.4852 1.56073
-0.828947 11.7105 1.52121
-0.828947 11.9358 1.48168
-0.828947 12.1612 1.44216
-0.828947 12.3865 1.40262
-0.828947 12.6118 1.36309
-0.828947 12.8372 1.32355
-0.828947 13.0625 1.28401
-0.828947 13.2878 1.24447
-0.828947 13.5131 1.20492
-0.828947 13.7385 1.16537
-0.828947 13.9638 1.12582
-0.828947 14.1891 1.08627
-0.828947 14.4145 1.04672
-0.828947 14.6398 1.00716
-0.828947 14.8651 0.967599
-0.828947 15.0904 0.928038
-0.328947 -15.1036 0.929092
-0.328947 -14.8783 0.968704
-0.328947 -14.653 1.00832
-0.328947 -14.4276 1.04793
-0.328947 -14.2023 1.08754
-0.328947 -13.977 1.12715
-0.328947 -13.7516 1.16676
-0.328947 -13.5263 1.20637
-0.328947 -13.301 1.24598
-0.328947 -13.0757 1.28559
-0.328947 -12.8503 1.3252
-0.328947 -12.625 1.36481
-0.328947 -12.3997 1.40441
-0.328947 -12.1743 1.44402
-0.328947 -11.949 1.48363
-0.328947 -11.7237 1.52323
-0.328947 -11.4984 1.56284
-0.328947 -11.273 1.60245
-0.328947 -11.0477 1.64205
-0.328947 -10.8224 1.68165
-0.328947 -10.597 1.72126
-0.328947 -10.3717 1.76086
-0.328947 -10.1464 1.80046
-0.328947 -9.92105 1.84006
-0.328947 -9.69572 1.87966
-0.328947 -9.47039 1.91926
-0.328947 -9.24507 1.95886
-0.328947 -9.01974 1.99845
-0.328947 -8.79441 2.03805
-0.328947 -8.56908 2.07764
-0.328947 8.55592 2.07995
-0.328947 8.78125 2.04036
-0.328947 9.00658 2.00076
-0.328947 9.2319 1.96117
-0.328947 9.45723 1.92157
-0.328947 9.68256 1.88197
-0.328947 9.90789 1.84237
-0.328947 10.1332 1.80277
-0.328947 10.3585 1.76317
-0.328947 10.5839 1.72357
-0.328947 10.8092 1.68397
-0.328947 11.0345 1.64436
-0.328947 11.2599 1.60476
-0.328947 11.4852 1.56515
-0.328947 11.7105 1.52555
-0.328947 11.9358 1.48594
-0.328947 12.1612 1.44634
-0.328947 12.3865 1.40673
-0.328947 12.6118 1.36712
-0.328947 12.8372 1.32751
-0.328947 13.0625 1.2879
-0.328947 13.2878 1.24829
-0.328947 13.5131 1.20869
-0.328947 13.7385 1.16908
-0.328947 13.9638 1.12946
-0.328947 14.1891 1.08985
-0.328947 14.4145 1.05024
-0.328947 14.6398 1.01063
-0.328947 14.8651 0.97102
-0.328947 15.0904 0.931408
-0.328947 15.3158 0.891796
0.171053 -15.1036 0.929552
0.171053 -14.8783 0.969171
0.171053 -14.653 1.00879
0.171053 -14.4276 1.04841
0.171053 -14.2023 1.08803
0.171053 -13.977 1.12765
0.171053 -13.7516 1.16726
0.171053 -13.5263 1.20688
0.171053 -13.301 1.2465
0.171053 -13.0757 1.28612
0.171053 -12.8503 1.32574
0.171053 -12.625 1.36536
0.171053 -12.3997 1.40497
0.171053 -12.1743 1.44459
0.171053 -11.949 1.48421
0.171053 -11.7237 1.52383
0.171053 -11.4984 1.56344
0.171053 -11.273 1.60306
0.171053 -11.0477 1.64268
0.171053 -10.8224 1.68229
0.171053 -10.597 1.72191
0.171053 -10.3717 1.76153
0.171053 -10.1464 1.80114
0.171053 -9.92105 1.84076
0.171053 -9.69572 1.88038
0.171053 -9.47039 1.91999
0.171053 -9.24507 1.95961
0.171053 -9.01974 1.99922
0.171053 -8.79441 2.03883
0.171053 -8.56908 2.07845
0.171053 8.55592 2.08076
0.171053 8.78125 2.04115
0.171053 9.00658 2.00153
0.171053 9.2319 1.96192
0.171053 9.45723 1.9223
0.171053 9.68256 1.88269
0.171053 9.90789 1.84307
0.171053 10.1332 1.80346
0.171053 10.3585 1.76384
0.171053 10.5839 1.72423
0.171053 10.8092 1.68461
0.171053 11.0345 1.64499
0.171053 11.2599 1.60538
0.171053 11.4852 1.56576
0.171053 11.7105 1.52614
0.171053 11.9358 1.48652
0.171053 12.1612 1.44691
0.171053 12.3865 1.40729
0.171053 12.6118 1.36767
0.171053 12.8372 1.32805
0.171053 13.0625 1.28844
0.171053 13.2878 1.24882
0.171053 13.5131 1.2092
0.171053 13.7385 1.16958
0.171053 13.9638 1.12996
0.171053 14.1891 1.09034
0.171053 14.4145 1.05072
0.171053 14.6398 1.01111
0.171053 14.8651 0.971487
0.171053 15.0904 0.931868
0.171053 15.3158 0.892249
0.671053 -15.1036 0.927102
0.671053 -14.8783 0.966684
0.671053 -14.653 1.00627
0.671053 -14.4276 1.04584
0.671053 -14.2023 1.08542
0.671053 -13.977 1.125
0.671053 -13.7516 1.16457
0.671053 -13.5263 1.20415
0.671053 -13.301 1.24372
0.671053 -13.0757 1.28329
0.671053 -12.8503 1.32286
0.671053 -12.625 1.36243
0.671053 -12.3997 1.40199
0.671053 -12.1743 1.44155
0.671053 -11.949 1.48111
0.671053 -11.7237 1.52067
0.671053 -11.4984 1.56023
0.671053 -11.273 1.59978
0.671053 -11.0477 1.63933
0.671053 -10.8224 1.67888
0.671053 -10.597 1.71842
0.671053 -10.3717 1.75796
0.671053 -10.1464 1.7975
0.671053 -9.92105 1.83703
0.671053 -9.69572 1.87656
0.671053 -9.47039 1.91609
0.671053 -9.24507 1.95561
0.671053 -9.01974 1.99512
0.671053 -8.79441 2.03463
0.671053 -8.56908 2.07414
0.671053 -8.34375 2.11363
0.671053 8.55592 2.07644
0.671053 8.78125 2.03694
0.671053 9.00658 1.99743
0.671053 9.2319 1.95792
0.671053 9.45723 1.9184
0.671053 9.68256 1.87887
0.671053 9.90789 1.83934
0.671053 10.1332 1.79981
0.671053 10.3585 1.76027
0.671053 10.5839 1.72073
0.671053 10.8092 1.68119
0.671053 11.0345 1.64164
0.671053 11.2599 1.60209
0.671053 11.4852 1.56254
0.671053 11.7105 1.52298
0.671053 11.9358 1.48343
0.671053 12.1612 1.44387
0.671053 12.3865 1.4043
0.671053 12.6118 1.36474
0.671053 12.8372 1.32517
0.671053 13.0625 1.2856
0.671053 13.2878 1.24603
0.671053 13.5131 1.20646
0.671053 13.7385 1.16689
0.671053 13.9638 1.12731
0.671053 14.1891 1.08774
0.671053 14.4145 1.04816
0.671053 14.6398 1.00858
0.671053 14.8651 0.968998
0.671053 15.0904 0.929416
1.17105 -15.1036 0.921751
1.17105 -14.8783 0.961253
1.17105 -14.653 1.00075
1.17105 -14.4276 1.04024
1.17105 -14.2023 1.07973
1.17105 -13.977 1.11922
1.17105 -13.7516 1.1587
1.17105 -13.5263 1.19818
1.17105 -13.301 1.23765
1.17105 -13.0757 1.27711
1.17105 -12.8503 1.31657
1.17105 -12.625 1.35603
1.17105 -12.3997 1.39548
1.17105 -12.1743 1.43492
1.17105 -11.949 1.47436
1.17105 -11.7237 1.51379
1.17105 -11.4984 1.55321
1.17105 -11.273 1.59262
1.17105 -11.0477 1.63203
1.17105 -10.8224 1.67142
1.17105 -10.597 1.71081
1.17105 -10.3717 1.75019
1.17105 -10.1464 1.78955
1.17105 -9.92105 1.82891
1.17105 -9.69572 1.86825
1.17105 -9.47039 1.90758
1.17105 -9.24507 1.94689
1.17105 -9.01974 1.98619
1.17105 -8.79441 2.02548
1.17105 -8.56908 2.06474
1.17105 -8.34375 2.10399
1.17105 8.33059 2.10628
1.17105 8.55592 2.06704
1.17105 8.78125 2.02777
1.17105 9.00658 1.98849
1.17105 9.2319 1.94919
1.17105 9.45723 1.90988
1.17105 9.68256 1.87055
1.17105 9.90789 1.83121
1.17105 10.1332 1.79185
1.17105 10.3585 1.75249
1.17105 10.5839 1.71311
1.17105 10.8092 1.67373
1.17105 11.0345 1.63433
1.17105 11.2599 1.59493
1.17105 11.4852 1.55551
1.17105 11.7105 1.51609
1.17105 11.9358 1.47666
1.17105 12.1612 1.43723
1.17105 12.3865 1.39778
1.17105 12.6118 1.35834
1.17105 12.8372 1.31888
1.17105 13.0625 1.27942
1.17105 13.2878 1.23995
1.17105 13.5131 1.20048
1.17105 13.7385 1.16101
1.17105 13.9638 1.12153
1.17105 14.1891 1.08204
1.17105 14.4145 1.04255
1.17105 14.6398 1.00306
1.17105 14.8651 0.963562
1.17105 15.0904 0.924061
1.67105 -15.1036 0.913517
1.67105 -14.8783 0.952894
1.67105 -14.653 0.992265
1.67105 -14.4276 1.03163
1.67105 -14.2023 1.07098
1.67105 -13.977 1.11033
1.67105 -13.7516 1.14966
1.67105 -13.5263 1.18899
1.67105 -13.301 1.22831
1.67105 -13.0757 1.26762
1.67105 -12.8503 1.30691
1.67105 -12.625 1.3462
1.67105 -12.3997 1.38547
1.67105 -12.1743 1.42473
1.67105 -11.949 1.46398
1.67105 -11.7237 1.50321
1.67105 -11.4984 1.54243
1.67105 -11.273 1.58163
1.67105 -11.0477 1.62081
1.67105 -10.8224 1.65998
1.67105 -10.597 1.69913
1.67105 -10.3717 1.73826
1.67105 -10.1464 1.77736
1.67105 -9.92105 1.81645
1.67105 -9.69572 1.8555
1.67105 -9.47039 1.89454
1.67105 -9.24507 1.93354
1.67105 -9.01974 1.97252
1.67105 -8.79441 2.01146
1.67105 -8.56908 2.05037
1.67105 -8.34375 2.08924
1.67105 8.33059 2.0915
1.67105 8.55592 2.05264
1.67105 8.78125 2.01373
1.67105 9.00658 1.97479
1.67105 9.2319 1.93582
1.67105 9.45723 1.89682
1.67105 9.68256 1.85779
1.67105 9.90789 1.81873
1.67105 10.1332 1.77965
1.67105 10.3585 1.74054
1.67105 10.5839 1.70142
1.67105 10.8092 1.66227
1.67105 11.0345 1.6231
1.67105 11.2599 1.58392
1.67105 11.4852 1.54472
1.67105 11.7105 1.5055
1.67105 11.9358 1.46627
1.67105 12.1612 1.42702
1.67105 12.3865 1.38777
1.67105 12.6118 1.34849
1.67105 12.8372 1.30921
1.67105 13.0625 1.26991
1.67105 13.2878 1.23061
1.67105 13.5131 1.19129
1.67105 13.7385 1.15196
1.67105 13.9638 1.11263
1.67105 14.1891 1.07328
1.67105 14.4145 1.03393
1.67105 14.6398 0.994566
1.67105 14.8651 0.955196
1.67105 15.0904 0.915819
2.17105 -15.1036 0.902425
2.17105 -14.8783 0.941637
2.17105 -14.653 0.980838
2.17105 -14.4276 1.02002
2.17105 -14.2023 1.0592
2.17105 -13.977 1.09836
2.17105 -13.7516 1.1375
2.17105 -13.5263 1.17663
2.17105 -13.301 1.21574
2.17105 -13.0757 1.25484
2.17105 -12.8503 1.29392
2.17105 -12.625 1.33297
2.17105 -12.3997 1.37201
2.17105 -12.1743 1.41103
2.17105 -11.949 1.45002
2.17105 -11.7237 1.489
2.17105 -11.4984 1.52794
2.17105 -11.273 1.56686
2.17105 -11.0477 1.60576
2.17105 -10.8224 1.64462
2.17105 -10.597 1.68345
2.17105 -10.3717 1.72225
2.17105 -10.1464 1.76101
2.17105 -9.92105 1.79974
2.17105 -9.69572 1.83842
2.17105 -9.47039 1.87706
2.17105 -9.24507 1.91566
2.17105 -9.01974 1.95421
2.17105 -8.79441 1.9927
2.17105 -8.56908 2.03114
2.17105 -8.34375 2.06952
2.17105 -8.11842 2.10783
2.17105 8.10526 2.11006
2.17105 8.33059 2.07176
2.17105 8.55592 2.03338
2.17105 8.78125 1.99495
2.17105 9.00658 1.95646
2.17105 9.2319 1.91791
2.17105 9.45723 1.87932
2.17105 9.68256 1.84068
2.17105 9.90789 1.802
2.17105 10.1332 1.76327
2.17105 10.3585 1.72451
2.17105 10.5839 1.68572
2.17105 10.8092 1.64689
2.17105 11.0345 1.60803
2.17105 11.2599 1.56914
2.17105 11.4852 1.53022
2.17105 11.7105 1.49127
2.17105 11.9358 1.4523
2.17105 12.1612 1.41331
2.17105 12.3865 1.37429
2.17105 12.6118 1.33526
2.17105 12.8372 1.2962
2.17105 13.0625 1.25712
2.17105 13.2878 1.21803
2.17105 13.5131 1.17892
2.17105 13.7385 1.13979
2.17105 13.9638 1.10065
2.17105 14.1891 1.06149
2.17105 14.4145 1.02232
2.17105 14.6398 0.983129
2.17105 14.8651 0.943929
2.17105 15.0904 0.904718
2.67105 -14.8783 0.927518
2.67105 -14.653 0.966507
2.67105 -14.4276 1.00548
2.67105 -14.2023 1.04443
2.67105 -13.977 1.08335
2.67105 -13.7516 1.12226
2.67105 -13.5263 1.16114
2.67105 -13.301 1.2
2.67105 -13.0757 1.23883
2.67105 -12.8503 1.27764
2.67105 -12.625 1.31642
2.67105 -12.3997 1.35517
2.67105 -12.1743 1.39389
2.67105 -11.949 1.43257
2.67105 -11.7237 1.47122
