VERSION .7
FIELDS x y z
SIZE 4 4 4
TYPE F F F
COUNT 1 1 1
WIDTH 1876
HEIGHT 1
VIEWPOINT 0 0 0 1 0 0 0
POINTS 1876
DATA ascii
-13.0461 1.04904e-05 1.24283
-13.0461 0.197379 1.25797
-13.0461 0.394748 1.27637
-13.0461 0.592116 1.3006
-13.0461 0.789485 1.33249
-13.0461 0.986854 1.37313
-13.0461 1.18422 1.42293
-13.0461 1.38159 1.48162
-13.0461 1.57896 1.54831
-13.0461 1.77633 1.62154
-13.0461 1.9737 1.69934
-13.0461 2.17106 1.77925
-13.0461 2.36843 1.85845
-13.0461 2.5658 1.9338
-13.0461 2.76317 2.002
-13.0461 2.96054 2.06124
-13.0461 3.15791 2.11096
-13.0461 3.35528 2.15076
-13.0461 3.55264 2.18058
-13.0461 3.75001 2.20074
-13.0461 3.94738 2.212
-13.0461 4.14475 2.21564
-13.0461 4.34212 2.21348
-13.0461 4.53949 2.20799
-13.0461 4.73686 2.20236
-13.0461 4.93423 2.20058
-13.0461 5.13159 2.20751
-13.0461 5.32896 2.22902
-13.0461 5.52633 2.27074
-13.0461 5.7237 2.32749
-13.0461 5.92107 2.39311
-13.0461 6.11844 2.46244
-13.0461 6.31581 2.53065
-13.0461 6.51317 2.59337
-13.0461 6.71054 2.64678
-13.0461 6.90791 2.68782
-13.0461 7.10528 2.71427
-13.0461 7.30265 2.72498
-12.3947 -8.28947 1.6244
-12.3947 -8.0921 1.57872
-12.3947 -7.89473 1.53763
-12.3947 -7.69737 1.5036
-12.3947 -7.5 1.47789
-12.3947 -7.30263 1.46116
-12.3947 -7.10526 1.45341
-12.3947 -6.90789 1.45413
-12.3947 -6.71052 1.46223
-12.3947 -6.51315 1.47608
-12.3947 -6.31579 1.49355
-12.3947 -6.11842 1.51204
-12.3947 -5.92105 1.52843
-12.3947 -5.72368 1.53914
-12.3947 -5.52631 1.54011
-12.3947 -5.32894 1.52615
-12.3947 -5.13157 1.49375
-12.3947 -4.93421 1.44992
-12.3947 -4.73684 1.40173
-12.3947 -4.53947 1.35507
-12.3947 -4.3421 1.31474
-12.3947 -4.14473 1.28441
-12.3947 -3.94736 1.26663
-12.3947 -3.74999 1.26289
-12.3947 -3.55262 1.27358
-12.3947 -3.35526 1.29801
-12.3947 -3.15789 1.33441
-12.3947 -2.96052 1.37993
-12.3947 -2.76315 1.43063
-12.3947 -2.56578 1.4772
-12.3947 -2.36841 1.50656
-12.3947 -2.17104 1.51864
-12.3947 -1.97368 1.51441
-12.3947 -1.77631 1.49538
-12.3947 -1.57894 1.46363
-12.3947 -1.38157 1.42181
-12.3947 -1.1842 1.37315
-12.3947 -0.986833 1.32153
-12.3947 -0.789464 1.27145
-12.3947 -0.592095 1.22808
-12.3947 -0.394727 1.19731
-12.3947 -0.197358 1.18574
-12.3947 1.04904e-05 1.20074
-12.3947 0.197379 1.23151
-12.3947 0.394748 1.26232
-12.3947 0.592116 1.29367
-12.3947 0.789485 1.32589
-12.3947 0.986854 1.35923
-12.3947 1.18422 1.39383
-12.3947 1.38159 1.42978
-12.3947 1.57896 1.4671
-12.3947 1.77633 1.50583
-12.3947 1.9737 1.54605
-12.3947 2.17106 1.58792
-12.3947 2.36843 1.6317
-12.3947 2.5658 1.67787
-12.3947 2.76317 1.72679
-12.3947 2.96054 1.7708
-12.3947 3.15791 1.80601
-12.3947 3.35528 1.83195
-12.3947 3.55264 1.84853
-12.3947 3.75001 1.85602
-12.3947 3.94738 1.85517
-12.3947 4.14475 1.84717
-12.3947 4.34212 1.83381
-12.3947 4.53949 1.81747
-12.3947 4.73686 1.80123
-12.3947 4.93423 1.78893
-12.3947 5.13159 1.78526
-12.3947 5.32896 1.79588
-12.3947 5.52633 1.82815
-12.3947 5.7237 1.88875
-12.3947 5.92107 1.97253
-12.3947 6.11844 2.07289
-12.3947 6.31581 2.18324
-12.3947 6.51317 2.29712
-12.3947 6.71054 2.40835
-12.3947 6.90791 2.51118
-12.3947 7.10528 2.60049
-12.3947 7.30265 2.672
-12.3947 7.50002 2.72243
-12.3947 7.69739 2.74974
-12.3947 7.89475 2.75339
-12.3947 8.09212 2.73452
-12.3947 8.28949 2.70684
-11.7434 -9.27631 1.79581
-11.7434 -9.07895 1.79671
-11.7434 -8.88158 1.79334
-11.7434 -8.68421 1.78443
-11.7434 -8.48684 1.76887
-11.7434 -8.28947 1.74558
-11.7434 -8.0921 1.71431
-11.7434 -7.89473 1.68839
-11.7434 -7.69737 1.67088
-11.7434 -7.5 1.65892
-11.7434 -7.30263 1.64999
-11.7434 -7.10526 1.64187
-11.7434 -6.90789 1.63265
-11.7434 -6.71052 1.62077
-11.7434 -6.51315 1.605
-11.7434 -6.31579 1.58442
-11.7434 -6.11842 1.55849
-11.7434 -5.92105 1.52697
-11.7434 -5.72368 1.49001
-11.7434 -5.52631 1.44807
-11.7434 -5.32894 1.40076
-11.7434 -5.13157 1.34523
-11.7434 -4.93421 1.28867
-11.7434 -4.73684 1.23813
-11.7434 -4.53947 1.19908
-11.7434 -4.3421 1.17541
-11.7434 -4.14473 1.16947
-11.7434 -3.94736 1.18207
-11.7434 -3.74999 1.21249
-11.7434 -3.55262 1.2585
-11.7434 -3.35526 1.31635
-11.7434 -3.15789 1.38078
-11.7434 -2.96052 1.44496
-11.7434 -2.76315 1.50049
-11.7434 -2.56578 1.53568
-11.7434 -2.36841 1.54349
-11.7434 -2.17104 1.52816
-11.7434 -1.97368 1.49428
-11.7434 -1.77631 1.44636
-11.7434 -1.57894 1.38894
-11.7434 -1.38157 1.32654
-11.7434 -1.1842 1.26371
-11.7434 -0.986833 1.20507
-11.7434 -0.789464 1.15532
-11.7434 -0.592095 1.11926
-11.7434 -0.394727 1.10187
-11.7434 -0.197358 1.10828
-11.7434 1.04904e-05 1.14388
-11.7434 0.197379 1.19392
-11.7434 0.394748 1.2385
-11.7434 0.592116 1.27585
-11.7434 0.789485 1.3048
-11.7434 0.986854 1.32479
-11.7434 1.18422 1.33588
-11.7434 1.38159 1.3388
-11.7434 1.57896 1.33494
-11.7434 1.77633 1.32641
-11.7434 1.9737 1.31605
-11.7434 2.17106 1.30748
-11.7434 2.36843 1.30511
-11.7434 2.5658 1.31419
-11.7434 2.76317 1.34014
-11.7434 2.96054 1.37176
-11.7434 3.15791 1.4015
-11.7434 3.35528 1.42772
-11.7434 3.55264 1.44914
-11.7434 3.75001 1.46488
-11.7434 3.94738 1.47449
-11.7434 4.14475 1.47804
-11.7434 4.34212 1.47612
-11.7434 4.53949 1.46993
-11.7434 4.73686 1.46136
-11.7434 4.93423 1.45305
-11.7434 5.13159 1.44845
-11.7434 5.32896 1.45192
-11.7434 5.52633 1.47156
-11.7434 5.7237 1.52534
-11.7434 5.92107 1.60975
-11.7434 6.11844 1.71752
-11.7434 6.31581 1.84113
-11.7434 6.51317 1.97297
-11.7434 6.71054 2.10552
-11.7434 6.90791 2.23156
-11.7434 7.10528 2.34435
-11.7434 7.30265 2.43789
-11.7434 7.50002 2.50718
-11.7434 7.69739 2.54847
-11.7434 7.89475 2.55953
-11.7434 8.09212 2.53995
-11.7434 8.28949 2.50306
-11.7434 8.48686 2.47998
-11.7434 8.68423 2.47283
-11.7434 8.8816 2.48201
-11.7434 9.07897 2.50737
-11.7434 9.27633 2.54812
-11.0921 -10.0658 1.59466
-11.0921 -9.86842 1.61469
-11.0921 -9.67105 1.64066
-11.0921 -9.47368 1.67013
-11.0921 -9.27631 1.70058
-11.0921 -9.07895 1.72941
-11.0921 -8.88158 1.75393
-11.0921 -8.68421 1.77135
-11.0921 -8.48684 1.77871
-11.0921 -8.28947 1.77293
-11.0921 -8.0921 1.75194
-11.0921 -7.89473 1.73543
-11.0921 -7.69737 1.72723
-11.0921 -7.5 1.72224
-11.0921 -7.30263 1.71621
-11.0921 -7.10526 1.70575
-11.0921 -6.90789 1.68835
-11.0921 -6.71052 1.66233
-11.0921 -6.51315 1.62686
-11.0921 -6.31579 1.58194
-11.0921 -6.11842 1.52838
-11.0921 -5.92105 1.46785
-11.0921 -5.72368 1.40278
-11.0921 -5.52631 1.33646
-11.0921 -5.32894 1.27141
-11.0921 -5.13157 1.20496
-11.0921 -4.93421 1.1439
-11.0921 -4.73684 1.09487
-11.0921 -4.53947 1.06272
-11.0921 -4.3421 1.05057
-11.0921 -4.14473 1.05977
-11.0921 -3.94736 1.09003
-11.0921 -3.74999 1.13932
-11.0921 -3.55262 1.20398
-11.0921 -3.35526 1.27864
-11.0921 -3.15789 1.35624
-11.0921 -2.96052 1.42801
-11.0921 -2.76315 1.4834
-11.0921 -2.56578 1.50976
-11.0921 -2.36841 1.50354
-11.0921 -2.17104 1.47161
-11.0921 -1.97368 1.42071
-11.0921 -1.77631 1.35712
-11.0921 -1.57894 1.28676
-11.0921 -1.38157 1.21516
-11.0921 -1.1842 1.14749
-11.0921 -0.986833 1.08863
-11.0921 -0.789464 1.04315
-11.0921 -0.592095 1.01537
-11.0921 -0.394727 1.00938
-11.0921 -0.197358 1.02911
-11.0921 1.04904e-05 1.07832
-11.0921 0.197379 1.14047
-11.0921 0.394748 1.1939
-11.0921 0.592116 1.23536
-11.0921 0.789485 1.26264
-11.0921 0.986854 1.27462
-11.0921 1.18422 1.27122
-11.0921 1.38159 1.25352
-11.0921 1.57896 1.22372
-11.0921 1.77633 1.18518
-11.0921 1.9737 1.1425
-11.0921 2.17106 1.10148
-11.0921 2.36843 1.06921
-11.0921 2.5658 1.05405
-11.0921 2.76317 1.06489
-11.0921 2.96054 1.091
-11.0921 3.15791 1.12307
-11.0921 3.35528 1.15808
-11.0921 3.55264 1.19337
-11.0921 3.75001 1.22665
-11.0921 3.94738 1.2561
-11.0921 4.14475 1.28038
-11.0921 4.34212 1.29868
-11.0921 4.53949 1.31086
-11.0921 4.73686 1.31742
-11.0921 4.93423 1.31963
-11.0921 5.13159 1.31963
-11.0921 5.32896 1.32046
-11.0921 5.52633 1.32978
-11.0921 5.7237 1.37046
-11.0921 5.92107 1.44051
-11.0921 6.11844 1.53326
-11.0921 6.31581 1.64158
-11.0921 6.51317 1.75818
-11.0921 6.71054 1.8757
-11.0921 6.90791 1.98701
-11.0921 7.10528 2.0854
-11.0921 7.30265 2.1649
-11.0921 7.50002 2.22055
-11.0921 7.69739 2.24871
-11.0921 7.89475 2.24735
-11.0921 8.09212 2.21646
-11.0921 8.28949 2.16854
-11.0921 8.48686 2.13237
-11.0921 8.68423 2.1116
-11.0921 8.8816 2.10831
-11.0921 9.07897 2.12397
-11.0921 9.27633 2.1592
-11.0921 9.4737 2.21347
-11.0921 9.67107 2.28484
-11.0921 9.86844 2.36973
-11.0921 10.0658 2.46264
-10.4408 -10.6579 1.43075
-10.4408 -10.4605 1.42082
-10.4408 -10.2632 1.4235
-10.4408 -10.0658 1.43655
-10.4408 -9.86842 1.45771
-10.4408 -9.67105 1.48471
-10.4408 -9.47368 1.5152
-10.4408 -9.27631 1.54676
-10.4408 -9.07895 1.57691
-10.4408 -8.88158 1.60301
-10.4408 -8.68421 1.62233
-10.4408 -8.48684 1.63199
-10.4408 -8.28947 1.62895
-10.4408 -8.0921 1.61112
-10.4408 -7.89473 1.59763
-10.4408 -7.69737 1.59238
-10.4408 -7.5 1.59055
-10.4408 -7.30263 1.58814
-10.4408 -7.10526 1.58195
-10.4408 -6.90789 1.56958
-10.4408 -6.71052 1.54939
-10.4408 -6.51315 1.52055
-10.4408 -6.31579 1.48297
-10.4408 -6.11842 1.43731
-10.4408 -5.92105 1.385
-10.4408 -5.72368 1.32819
-10.4408 -5.52631 1.26978
-10.4408 -5.32894 1.21236
-10.4408 -5.13157 1.1554
-10.4408 -4.93421 1.10453
-10.4408 -4.73684 1.065
-10.4408 -4.53947 1.04056
-10.4408 -4.3421 1.03348
-10.4408 -4.14473 1.0446
-10.4408 -3.94736 1.07335
-10.4408 -3.74999 1.11778
-10.4408 -3.55262 1.17455
-10.4408 -3.35526 1.23893
-10.4408 -3.15789 1.30481
-10.4408 -2.96052 1.36467
-10.4408 -2.76315 1.40952
-10.4408 -2.56578 1.42825
-10.4408 -2.36841 1.41731
-10.4408 -2.17104 1.38324
-10.4408 -1.97368 1.3324
-10.4408 -1.77631 1.2707
-10.4408 -1.57894 1.2036
-10.4408 -1.38157 1.13619
-10.4408 -1.1842 1.07318
-10.4408 -0.986833 1.01891
-10.4408 -0.789464 0.977425
-10.4408 -0.592095 0.952462
-10.4408 -0.394727 0.947509
-10.4408 -0.197358 0.965829
-10.4408 1.04904e-05 1.0105
-10.4408 0.197379 1.06818
-10.4408 0.394748 1.12067
-10.4408 0.592116 1.16441
-10.4408 0.789485 1.1968
-10.4408 0.986854 1.21622
-10.4408 1.18422 1.22206
-10.4408 1.38159 1.21475
-10.4408 1.57896 1.19582
-10.4408 1.77633 1.16791
-10.4408 1.9737 1.13482
-10.4408 2.17106 1.10156
-10.4408 2.36843 1.07438
-10.4408 2.5658 1.06083
-10.4408 2.76317 1.06921
-10.4408 2.96054 1.09297
-10.4408 3.15791 1.12461
-10.4408 3.35528 1.16098
-10.4408 3.55264 1.19921
-10.4408 3.75001 1.23679
-10.4408 3.94738 1.27157
-10.4408 4.14475 1.30189
-10.4408 4.34212 1.32654
-10.4408 4.53949 1.34492
-10.4408 4.73686 1.35704
-10.4408 4.93423 1.36363
-10.4408 5.13159 1.36619
-10.4408 5.32896 1.36712
-10.4408 5.52633 1.37271
-10.4408 5.7237 1.40199
-10.4408 5.92107 1.45414
-10.4408 6.11844 1.52433
-10.4408 6.31581 1.60728
-10.4408 6.51317 1.69736
-10.4408 6.71054 1.78879
-10.4408 6.90791 1.87582
-10.4408 7.10528 1.953
-10.4408 7.30265 2.01536
-10.4408 7.50002 2.05873
-10.4408 7.69739 2.08001
-10.4408 7.89475 2.07749
-10.4408 8.09212 2.05113
-10.4408 8.28949 2.01104
-10.4408 8.48686 1.98025
-10.4408 8.68423 1.9619
-10.4408 8.8816 1.9579
-10.4408 9.07897 1.96976
-10.4408 9.27633 1.99825
-10.4408 9.4737 2.04321
-10.4408 9.67107 2.10325
-10.4408 9.86844 2.17551
-10.4408 10.0658 2.25542
-10.4408 10.2632 2.33648
-10.4408 10.4605 2.41007
-10.4408 10.6579 2.4653
-9.78947 -11.25 1.46038
-9.78947 -11.0526 1.46962
-9.78947 -10.8553 1.45768
-9.78947 -10.6579 1.43694
-9.78947 -10.4605 1.42095
-9.78947 -10.2632 1.4091
-9.78947 -10.0658 1.4008
-9.78947 -9.86842 1.39546
-9.78947 -9.67105 1.39246
-9.78947 -9.47368 1.39113
-9.78947 -9.27631 1.39077
-9.78947 -9.07895 1.39055
-9.78947 -8.88158 1.3896
-9.78947 -8.68421 1.3869
-9.78947 -8.48684 1.38134
-9.78947 -8.28947 1.37165
-9.78947 -8.0921 1.35698
-9.78947 -7.89473 1.34672
-9.78947 -7.69737 1.34262
-9.78947 -7.5 1.34213
-9.78947 -7.30263 1.34304
-9.78947 -7.10526 1.34349
-9.78947 -6.90789 1.342
-9.78947 -6.71052 1.33739
-9.78947 -6.51315 1.32887
-9.78947 -6.31579 1.31597
-9.78947 -6.11842 1.29859
-9.78947 -5.92105 1.27697
-9.78947 -5.72368 1.25167
-9.78947 -5.52631 1.22362
-9.78947 -5.32894 1.19431
-9.78947 -5.13157 1.16717
-9.78947 -4.93421 1.14494
-9.78947 -4.73684 1.12953
-9.78947 -4.53947 1.12216
-9.78947 -4.3421 1.12343
-9.78947 -4.14473 1.13329
-9.78947 -3.94736 1.15111
-9.78947 -3.74999 1.17565
-9.78947 -3.55262 1.20509
-9.78947 -3.35526 1.23703
-9.78947 -3.15789 1.26848
-9.78947 -2.96052 1.29584
-9.78947 -2.76315 1.31493
-9.78947 -2.56578 1.31894
-9.78947 -2.36841 1.30315
-9.78947 -2.17104 1.27198
-9.78947 -1.97368 1.22982
-9.78947 -1.77631 1.18073
-9.78947 -1.57894 1.12846
-9.78947 -1.38157 1.07644
-9.78947 -1.1842 1.02785
-9.78947 -0.986833 0.985636
-9.78947 -0.789464 0.952487
-9.78947 -0.592095 0.930904
-9.78947 -0.394727 0.923203
-9.78947 -0.197358 0.931548
-9.78947 1.04904e-05 0.957974
-9.78947 0.197379 0.996557
-9.78947 0.394748 1.03755
-9.78947 0.592116 1.07759
-9.78947 0.789485 1.11392
-9.78947 0.986854 1.14438
-9.78947 1.18422 1.16745
-9.78947 1.38159 1.18231
-9.78947 1.57896 1.18887
-9.78947 1.77633 1.18782
-9.78947 1.9737 1.18072
-9.78947 2.17106 1.17004
-9.78947 2.36843 1.15926
-9.78947 2.5658 1.15297
-9.78947 2.76317 1.15678
-9.78947 2.96054 1.17158
-9.78947 3.15791 1.19439
-9.78947 3.35528 1.22288
-9.78947 3.55264 1.2549
-9.78947 3.75001 1.28848
-9.78947 3.94738 1.32188
-9.78947 4.14475 1.35356
-9.78947 4.34212 1.38228
-9.78947 4.53949 1.40705
-9.78947 4.73686 1.42723
-9.78947 4.93423 1.44248
-9.78947 5.13159 1.45288
-9.78947 5.32896 1.45888
-9.78947 5.52633 1.46387
-9.78947 5.7237 1.48313
-9.78947 5.92107 1.51742
-9.78947 6.11844 1.56437
-9.78947 6.31581 1.62127
-9.78947 6.51317 1.68507
-9.78947 6.71054 1.75251
-9.78947 6.90791 1.82019
-9.78947 7.10528 1.88468
-9.78947 7.30265 1.94266
-9.78947 7.50002 1.99104
-9.78947 7.69739 2.02709
-9.78947 7.89475 2.04864
-9.78947 8.09212 2.05419
-9.78947 8.28949 2.0504
-9.78947 8.48686 2.05517
-9.78947 8.68423 2.06895
-9.78947 8.8816 2.09134
-9.78947 9.07897 2.12192
-9.78947 9.27633 2.16009
-9.78947 9.4737 2.20493
-9.78947 9.67107 2.25512
-9.78947 9.86844 2.30882
-9.78947 10.0658 2.36352
-9.78947 10.2632 2.41596
-9.78947 10.4605 2.46211
-9.78947 10.6579 2.49702
-9.78947 10.8553 2.51488
-9.78947 11.0527 2.50486
-9.78947 11.25 2.46901
-9.13816 -11.8421 1.34685
-9.13816 -11.6447 1.39362
-9.13816 -11.4474 1.4318
-9.13816 -11.25 1.45843
-9.13816 -11.0526 1.47075
-9.13816 -10.8553 1.4662
-9.13816 -10.6579 1.4495
-9.13816 -10.4605 1.42749
-9.13816 -10.2632 1.40126
-9.13816 -10.0658 1.3719
-9.13816 -9.86842 1.3405
-9.13816 -9.67105 1.30812
-9.13816 -9.47368 1.27576
-9.13816 -9.27631 1.24433
-9.13816 -9.07895 1.21472
-9.13816 -8.88158 1.18766
-9.13816 -8.68421 1.16384
-9.13816 -8.48684 1.14381
-9.13816 -8.28947 1.12799
-9.13816 -8.0921 1.1166
-9.13816 -7.89473 1.1079
-9.13816 -7.69737 1.10152
-9.13816 -7.5 1.09775
-9.13816 -7.30263 1.09669
-9.13816 -7.10526 1.09827
-9.13816 -6.90789 1.10225
-9.13816 -6.71052 1.10825
-9.13816 -6.51315 1.11574
-9.13816 -6.31579 1.1241
-9.13816 -6.11842 1.13257
-9.13816 -5.92105 1.14027
-9.13816 -5.72368 1.14626
-9.13816 -5.52631 1.14948
-9.13816 -5.32894 1.15006
-9.13816 -5.13157 1.15395
-9.13816 -4.93421 1.16064
-9.13816 -4.73684 1.16862
-9.13816 -4.53947 1.17661
-9.13816 -4.3421 1.18356
-9.13816 -4.14473 1.18868
-9.13816 -3.94736 1.19143
-9.13816 -3.74999 1.19149
-9.13816 -3.55262 1.18883
-9.13816 -3.35526 1.18364
-9.13816 -3.15789 1.17638
-9.13816 -2.96052 1.16776
-9.13816 -2.76315 1.15873
-9.13816 -2.56578 1.14812
-9.13816 -2.36841 1.13175
-9.13816 -2.17104 1.1111
-9.13816 -1.97368 1.08771
-9.13816 -1.77631 1.06297
-9.13816 -1.57894 1.03813
-9.13816 -1.38157 1.01429
-9.13816 -1.1842 0.99243
-9.13816 -0.986833 0.973444
-9.13816 -0.789464 0.958116
-9.13816 -0.592095 0.947158
-9.13816 -0.394727 0.941208
-9.13816 -0.197358 0.940853
-9.13816 1.04904e-05 0.946632
-9.13816 0.197379 0.960092
-9.13816 0.394748 0.980898
-9.13816 0.592116 1.00684
-9.13816 0.789485 1.03585
-9.13816 0.986854 1.06597
-9.13816 1.18422 1.09547
-9.13816 1.38159 1.12279
-9.13816 1.57896 1.14664
-9.13816 1.77633 1.16608
-9.13816 1.9737 1.18054
-9.13816 2.17106 1.18996
-9.13816 2.36843 1.19488
-9.13816 2.5658 1.19657
-9.13816 2.76317 1.19747
-9.13816 2.96054 1.20566
-9.13816 3.15791 1.22269
-9.13816 3.35528 1.24704
-9.13816 3.55264 1.27727
-9.13816 3.75001 1.31196
-9.13816 3.94738 1.34973
-9.13816 4.14475 1.38919
-9.13816 4.34212 1.42893
-9.13816 4.53949 1.4675
-9.13816 4.73686 1.5034
-9.13816 4.93423 1.53499
-9.13816 5.13159 1.56052
-9.13816 5.32896 1.57803
-9.13816 5.52633 1.58778
-9.13816 5.7237 1.60309
-9.13816 5.92107 1.62584
-9.13816 6.11844 1.65541
-9.13816 6.31581 1.69112
-9.13816 6.51317 1.7322
-9.13816 6.71054 1.77781
-9.13816 6.90791 1.82697
-9.13816 7.10528 1.87857
-9.13816 7.30265 1.93132
-9.13816 7.50002 1.98374
-9.13816 7.69739 2.03409
-9.13816 7.89475 2.08036
-9.13816 8.09212 2.12021
-9.13816 8.28949 2.15666
-9.13816 8.48686 2.20074
-9.13816 8.68423 2.24975
-9.13816 8.8816 2.30058
-9.13816 9.07897 2.35045
-9.13816 9.27633 2.39703
-9.13816 9.4737 2.43842
-9.13816 9.67107 2.47329
-9.13816 9.86844 2.50094
-9.13816 10.0658 2.52136
-9.13816 10.2632 2.53535
-9.13816 10.4605 2.54458
-9.13816 10.6579 2.55176
-9.13816 10.8553 2.56068
-9.13816 11.0527 2.55688
-9.13816 11.25 2.52971
-9.13816 11.4474 2.49017
-9.13816 11.6448 2.44833
-9.13816 11.8421 2.41319
-8.48684 -12.2368 1.25352
-8.48684 -12.0395 1.28235
-8.48684 -11.8421 1.30971
-8.48684 -11.6447 1.33387
-8.48684 -11.4474 1.35318
-8.48684 -11.25 1.36615
-8.48684 -11.0526 1.37147
-8.48684 -10.8553 1.36802
-8.48684 -10.6579 1.35506
-8.48684 -10.4605 1.33362
-8.48684 -10.2632 1.30537
-8.48684 -10.0658 1.27197
-8.48684 -9.86842 1.23505
-8.48684 -9.67105 1.19618
-8.48684 -9.47368 1.15685
-8.48684 -9.27631 1.11849
-8.48684 -9.07895 1.08243
-8.48684 -8.88158 1.0499
-8.48684 -8.68421 1.02203
-8.48684 -8.48684 0.99984
-8.48684 -8.28947 0.984228
-8.48684 -8.0921 0.975519
-8.48684 -7.89473 0.965573
-8.48684 -7.69737 0.953379
-8.48684 -7.5 0.941426
-8.48684 -7.30263 0.931659
-8.48684 -7.10526 0.925504
-8.48684 -6.90789 0.923899
-8.48684 -6.71052 0.92731
-8.48684 -6.51315 0.93576
-8.48684 -6.31579 0.948846
-8.48684 -6.11842 0.965758
-8.48684 -5.92105 0.9853
-8.48684 -5.72368 1.0059
-8.48684 -5.52631 1.02564
-8.48684 -5.32894 1.04377
-8.48684 -5.13157 1.06589
-8.48684 -4.93421 1.08919
-8.48684 -4.73684 1.11005
-8.48684 -4.53947 1.12573
-8.48684 -4.3421 1.13424
-8.48684 -4.14473 1.13439
-8.48684 -3.94736 1.12577
-8.48684 -3.74999 1.10873
-8.48684 -3.55262 1.08438
-8.48684 -3.35526 1.05459
-8.48684 -3.15789 1.02195
-8.48684 -2.96052 0.989868
-8.48684 -2.76315 0.962472
-8.48684 -2.56578 0.943242
-8.48684 2.5658 1.12905
-8.48684 2.76317 1.13039
-8.48684 2.96054 1.13874
-8.48684 3.15791 1.15817
-8.48684 3.35528 1.18742
-8.48684 3.55264 1.22521
-8.48684 3.75001 1.27022
-8.48684 3.94738 1.32101
-8.48684 4.14475 1.37602
-8.48684 4.34212 1.43348
-8.48684 4.53949 1.49139
-8.48684 4.73686 1.5474
-8.48684 4.93423 1.59876
-8.48684 5.13159 1.6422
-8.48684 5.32896 1.67388
-8.48684 5.52633 1.69191
-8.48684 5.7237 1.7094
-8.48684 5.92107 1.72854
-8.48684 6.11844 1.74926
-8.48684 6.31581 1.77181
-8.48684 6.51317 1.79665
-8.48684 6.71054 1.82446
-8.48684 6.90791 1.85596
-8.48684 7.10528 1.89187
-8.48684 7.30265 1.93274
-8.48684 7.50002 1.97884
-8.48684 7.69739 2.02996
-8.48684 7.89475 2.08525
-8.48684 8.09212 2.14302
-8.48684 8.28949 2.20344
-8.48684 8.48686 2.26939
-8.48684 8.68423 2.33602
-8.48684 8.8816 2.39853
-8.48684 9.07897 2.45272
-8.48684 9.27633 2.49517
-8.48684 9.4737 2.52351
-8.48684 9.67107 2.53658
-8.48684 9.86844 2.53474
-8.48684 10.0658 2.52002
-8.48684 10.2632 2.49647
-8.48684 10.4605 2.47033
-8.48684 10.6579 2.45031
-8.48684 10.8553 2.44782
-8.48684 11.0527 2.44533
-8.48684 11.25 2.42196
-8.48684 11.4474 2.38756
-8.48684 11.6448 2.35132
-8.48684 11.8421 2.32156
-8.48684 12.0395 2.30556
-8.48684 12.2369 2.30929
-7.83553 -12.6316 1.18761
-7.83553 -12.4342 1.18138
-7.83553 -12.2368 1.17533
-7.83553 -12.0395 1.16923
-7.83553 -11.8421 1.16286
-7.83553 -11.6447 1.15603
-7.83553 -11.4474 1.14868
-7.83553 -11.25 1.14088
-7.83553 -11.0526 1.1329
-7.83553 -10.8553 1.12521
-7.83553 -10.6579 1.11575
-7.83553 -10.4605 1.10277
-7.83553 -10.2632 1.08725
-7.83553 -10.0658 1.07005
-7.83553 -9.86842 1.05201
-7.83553 -9.67105 1.03386
-7.83553 -9.47368 1.01622
-7.83553 -9.27631 0.999648
-7.83553 -9.07895 0.984558
-7.83553 -8.88158 0.971265
-7.83553 -8.68421 0.959959
-7.83553 -8.48684 0.950708
-7.83553 -8.28947 0.943454
-7.83553 -8.0921 0.937663
-7.83553 -7.89473 0.926786
-7.83553 -7.69737 0.910846
-7.83553 -7.5 0.892625
-7.83553 -7.30263 0.874405
-7.83553 -7.10526 0.858001
-7.83553 -6.90789 0.844777
-7.83553 -6.71052 0.835678
-7.83553 -6.51315 0.831242
-7.83553 -6.31579 0.831627
-7.83553 -6.11842 0.836629
-7.83553 -5.92105 0.845699
-7.83553 -5.72368 0.857958
-7.83553 -5.52631 0.872214
-7.83553 -5.32894 0.888002
-7.83553 -5.13157 0.90849
-7.83553 -4.93421 0.930347
-7.83553 -4.73684 0.949953
-7.83553 -4.53947 0.964515
-7.83553 -4.3421 0.972045
-7.83553 -4.14473 0.971341
-7.83553 4.14475 1.31484
-7.83553 4.34212 1.38874
-7.83553 4.53949 1.4623
-7.83553 4.73686 1.53274
-7.83553 4.93423 1.59691
-7.83553 5.13159 1.65117
-7.83553 5.32896 1.69131
-7.83553 5.52633 1.71509
-7.83553 5.7237 1.73506
-7.83553 5.92107 1.75317
-7.83553 6.11844 1.76928
-7.83553 6.31581 1.78368
-7.83553 6.51317 1.7971
-7.83553 6.71054 1.81059
-7.83553 6.90791 1.8255
-7.83553 7.10528 1.84332
-7.83553 7.30265 1.86558
-7.83553 7.50002 1.89374
-7.83553 7.69739 1.92893
-7.83553 7.89475 1.97183
-7.83553 8.09212 2.02245
-7.83553 8.28949 2.07965
-7.83553 8.48686 2.13949
-7.83553 8.68423 2.19691
-7.83553 8.8816 2.24723
-7.83553 9.07897 2.2864
-7.83553 9.27633 2.31121
-7.83553 9.4737 2.31957
-7.83553 9.67107 2.31075
-7.83553 9.86844 2.28566
-7.83553 10.0658 2.24712
-7.83553 10.2632 2.20021
-7.83553 10.4605 2.15247
-7.83553 10.6579 2.11428
-7.83553 10.8553 2.09907
-7.83553 11.0527 2.08968
-7.83553 11.25 2.06342
-7.83553 11.4474 2.02932
-7.83553 11.6448 1.99572
-7.83553 11.8421 1.9701
-7.83553 12.0395 1.95892
-7.83553 12.2369 1.96738
-7.83553 12.4342 1.99918
-7.83553 12.6316 2.0563
-7.18421 -13.0263 1.19323
-7.18421 -12.8289 1.16095
-7.18421 -12.6316 1.12362
-7.18421 -12.4342 1.08288
-7.18421 -12.2368 1.04029
-7.18421 -12.0395 0.997385
-7.18421 -11.8421 0.955704
-7.18421 -11.6447 0.916858
-7.18421 -11.4474 0.882543
-7.18421 -11.25 0.854585
-7.18421 -11.0526 0.834962
-7.18421 -10.8553 0.825832
-7.18421 -10.6579 0.821809
-7.18421 -10.4605 0.817067
-7.18421 -10.2632 0.812663
-7.18421 -10.0658 0.80944
-7.18421 -9.86842 0.808014
-7.18421 -9.67105 0.808775
-7.18421 -9.47368 0.811888
-7.18421 -9.27631 0.817291
-7.18421 -9.07895 0.824697
-7.18421 -8.88158 0.833594
-7.18421 -8.68421 0.843254
-7.18421 -8.48684 0.852731
-7.18421 -8.28947 0.860866
-7.18421 -8.0921 0.866239
-7.18421 -7.89473 0.866738
-7.18421 -7.69737 0.862565
-7.18421 -7.5 0.8546
-7.18421 -7.30263 0.843686
-7.18421 -7.10526 0.830632
-7.18421 -6.90789 0.816226
-7.18421 -6.71052 0.801243
-7.18421 -6.51315 0.78645
-7.18421 -6.31579 0.772615
-7.18421 -6.11842 0.76051
-7.18421 -5.92105 0.750919
-7.18421 -5.72368 0.744642
-7.18421 -5.52631 0.742498
-7.18421 -5.32894 0.745616
-7.18421 5.32896 1.53483
-7.18421 5.52633 1.55616
-7.18421 5.7237 1.57165
-7.18421 5.92107 1.58235
-7.18421 6.11844 1.58871
-7.18421 6.31581 1.59154
-7.18421 6.51317 1.59203
-7.18421 6.71054 1.59165
-7.18421 6.90791 1.59214
-7.18421 7.10528 1.59538
-7.18421 7.30265 1.60329
-7.18421 7.50002 1.61771
-7.18421 7.69739 1.64021
-7.18421 7.89475 1.67197
-7.18421 8.09212 1.71352
-7.18421 8.28949 1.76511
-7.18421 8.48686 1.82458
-7.18421 8.68423 1.88603
-7.18421 8.8816 1.94373
-7.18421 9.07897 1.99247
-7.18421 9.27633 2.02782
-7.18421 9.4737 2.04641
-7.18421 9.67107 2.04624
-7.18421 9.86844 2.02702
-7.18421 10.0658 1.99043
-7.18421 10.2632 1.94055
-7.18421 10.4605 1.88415
-7.18421 10.6579 1.8311
-7.18421 10.8553 1.79462
-7.18421 11.0527 1.76887
-7.18421 11.25 1.74138
-7.18421 11.4474 1.71881
-7.18421 11.6448 1.70692
-7.18421 11.8421 1.71045
-7.18421 12.0395 1.73287
-7.18421 12.2369 1.77633
-7.18421 12.4342 1.84133
-7.18421 12.6316 1.92664
-7.18421 12.829 2.02897
-7.18421 13.0263 2.1428
-6.5329 -13.4211 1.18289
-6.5329 -13.2237 1.16468
-6.5329 -13.0263 1.13302
-6.5329 -12.8289 1.09076
-6.5329 -12.6316 1.0406
-6.5329 -12.4342 0.985126
-6.5329 -12.2368 0.92685
-6.5329 -12.0395 0.868263
-6.5329 -11.8421 0.81186
-6.5329 -11.6447 0.760169
-6.5329 -11.4474 0.715786
-6.5329 -11.25 0.681398
-6.5329 -11.0526 0.659801
-6.5329 -10.8553 0.653922
-6.5329 -10.6579 0.654114
-6.5329 -10.4605 0.650899
-6.5329 -10.2632 0.646546
-6.5329 -10.0658 0.642898
-6.5329 -9.86842 0.641381
-6.5329 -9.67105 0.643014
-6.5329 -9.47368 0.648417
-6.5329 -9.27631 0.657822
-6.5329 -9.07895 0.671079
-6.5329 -8.88158 0.687678
-6.5329 -8.68421 0.706751
-6.5329 -8.48684 0.727096
-6.5329 -8.28947 0.747183
-6.5329 -8.0921 0.76531
-6.5329 -7.89473 0.782132
-6.5329 -7.69737 0.796512
-6.5329 -7.5 0.806667
-6.5329 -7.30263 0.811356
-6.5329 -7.10526 0.809866
-6.5329 -6.90789 0.801992
-6.5329 -6.71052 0.788025
-6.5329 -6.51315 0.768734
-6.5329 -6.31579 0.745347
-6.5329 -6.11842 0.719535
-6.5329 6.11844 1.33161
-6.5329 6.31581 1.3243
-6.5329 6.51317 1.3155
-6.5329 6.71054 1.30728
-6.5329 6.90791 1.30178
-6.5329 7.10528 1.30107
-6.5329 7.30265 1.30704
-6.5329 7.50002 1.32127
-6.5329 7.69739 1.34485
-6.5329 7.89475 1.37823
-6.5329 8.09212 1.42102
-6.5329 8.28949 1.4763
-6.5329 8.48686 1.55032
-6.5329 8.68423 1.63567
-6.5329 8.8816 1.72444
-6.5329 9.07897 1.80912
-6.5329 9.27633 1.88289
-6.5329 9.4737 1.93996
-6.5329 9.67107 1.97592
-6.5329 9.86844 1.98814
-6.5329 10.0658 1.97617
-6.5329 10.2632 1.94216
-6.5329 10.4605 1.89127
-6.5329 10.6579 1.83213
-6.5329 10.8553 1.77728
-6.5329 11.0527 1.73496
-6.5329 11.25 1.70599
-6.5329 11.4474 1.69445
-6.5329 11.6448 1.70338
-6.5329 11.8421 1.73455
-6.5329 12.0395 1.78839
-6.5329 12.2369 1.86381
-6.5329 12.4342 1.95805
-6.5329 12.6316 2.06656
-6.5329 12.829 2.18282
-6.5329 13.0263 2.29817
-6.5329 13.2237 2.40168
-6.5329 13.4211 2.47996
-5.88158 -13.6184 1.06787
-5.88158 -13.4211 1.06992
-5.88158 -13.2237 1.05752
-5.88158 -13.0263 1.03282
-5.88158 -12.8289 0.998468
-5.88158 -12.6316 0.956974
-5.88158 -12.4342 0.910733
-5.88158 -12.2368 0.862068
-5.88158 -12.0395 0.81326
-5.88158 -11.8421 0.766578
-5.88158 -11.6447 0.724309
-5.88158 -11.4474 0.688781
-5.88158 -11.25 0.662382
-5.88158 -11.0526 0.647579
-5.88158 -10.8553 0.646933
-5.88158 -10.6579 0.647997
-5.88158 -10.4605 0.639966
-5.88158 -10.2632 0.626644
-5.88158 -10.0658 0.611256
-5.88158 -9.86842 0.596464
-5.88158 -9.67105 0.584379
-5.88158 -9.47368 0.576582
-5.88158 -9.27631 0.574135
-5.88158 -9.07895 0.577607
-5.88158 -8.88158 0.587087
-5.88158 -8.68421 0.60221
-5.88158 -8.48684 0.622176
-5.88158 -8.28947 0.64577
-5.88158 -8.0921 0.671543
-5.88158 -7.89473 0.699916
-5.88158 -7.69737 0.727738
-5.88158 -7.5 0.751268
-5.88158 -7.30263 0.767742
-5.88158 -7.10526 0.775336
-5.88158 -6.90789 0.773128
-5.88158 -6.71052 0.761051
-5.88158 6.71054 1.09441
-5.88158 6.90791 1.08877
-5.88158 7.10528 1.09076
-5.88158 7.30265 1.10221
-5.88158 7.50002 1.12434
-5.88158 7.69739 1.15758
-5.88158 7.89475 1.20135
-5.88158 8.09212 1.25385
-5.88158 8.28949 1.32075
-5.88158 8.48686 1.4172
-5.88158 8.68423 1.53423
-5.88158 8.8816 1.66173
-5.88158 9.07897 1.78984
-5.88158 9.27633 1.90934
-5.88158 9.4737 2.01205
-5.88158 9.67107 2.09123
-5.88158 9.86844 2.14202
-5.88158 10.0658 2.16197
-5.88158 10.2632 2.15148
-5.88158 10.4605 2.11434
-5.88158 10.6579 2.05821
-5.88158 10.8553 1.99516
-5.88158 11.0527 1.9427
-5.88158 11.25 1.91019
-5.88158 11.4474 1.90014
-5.88158 11.6448 1.91394
-5.88158 11.8421 1.95174
-5.88158 12.0395 2.01233
-5.88158 12.2369 2.09299
-5.88158 12.4342 2.18939
-5.88158 12.6316 2.29548
-5.88158 12.829 2.40335
-5.88158 13.0263 2.50313
-5.88158 13.2237 2.58289
-5.88158 13.4211 2.62857
-5.88158 13.6184 2.62476
-5.23026 -14.0132 0.978574
-5.23026 -13.8158 0.971399
-5.23026 -13.6184 0.972358
-5.23026 -13.4211 0.975356
-5.23026 -13.2237 0.96827
-5.23026 -13.0263 0.952645
-5.23026 -12.8289 0.9304
-5.23026 -12.6316 0.903305
-5.23026 -12.4342 0.87302
-5.23026 -12.2368 0.841131
-5.23026 -12.0395 0.809179
-5.23026 -11.8421 0.778694
-5.23026 -11.6447 0.751216
-5.23026 -11.4474 0.728325
-5.23026 -11.25 0.711654
-5.23026 -11.0526 0.70291
-5.23026 -10.8553 0.703888
-5.23026 -10.6579 0.702828
-5.23026 -10.4605 0.690402
-5.23026 -10.2632 0.670872
-5.23026 -10.0658 0.647894
-5.23026 -9.86842 0.624534
-5.23026 -9.67105 0.603289
-5.23026 -9.47368 0.586102
-5.23026 -9.27631 0.574385
-5.23026 -9.07895 0.569041
-5.23026 -8.88158 0.570484
-5.23026 -8.68421 0.578666
-5.23026 -8.48684 0.593099
-5.23026 -8.28947 0.612883
-5.23026 -8.0921 0.636777
-5.23026 -7.89473 0.663231
-5.23026 -7.69737 0.688214
-5.23026 -7.5 0.708017
-5.23026 -7.30263 0.719971
-5.23026 7.30265 1.06217
-5.23026 7.50002 1.0882
-5.23026 7.69739 1.12659
-5.23026 7.89475 1.17676
-5.23026 8.09212 1.23685
-5.23026 8.28949 1.31304
-5.23026 8.48686 1.42193
-5.23026 8.68423 1.55399
-5.23026 8.8816 1.69841
-5.23026 9.07897 1.84456
-5.23026 9.27633 1.98247
-5.23026 9.4737 2.10318
-5.23026 9.67107 2.19923
-5.23026 9.86844 2.26516
-5.23026 10.0658 2.29797
-5.23026 10.2632 2.29774
-5.23026 10.4605 2.26806
-5.23026 10.6579 2.21667
-5.23026 10.8553 2.1559
-5.23026 11.0527 2.1021
-5.23026 11.25 2.06304
-5.23026 11.4474 2.04133
-5.23026 11.6448 2.03861
-5.23026 11.8421 2.05551
-5.23026 12.0395 2.09142
-5.23026 12.2369 2.14443
-5.23026 12.4342 2.21118
-5.23026 12.6316 2.28672
-5.23026 12.829 2.36441
-5.23026 13.0263 2.43581
-5.23026 13.2237 2.49054
-5.23026 13.4211 2.51625
-5.23026 13.6184 2.49914
-5.23026 13.8158 2.4486
-5.23026 14.0132 2.38684
-4.57895 -14.2105 1.01729
-4.57895 -14.0132 1.00554
-4.57895 -13.8158 0.996102
-4.57895 -13.6184 0.989174
-4.57895 -13.4211 0.983277
-4.57895 -13.2237 0.974948
-4.57895 -13.0263 0.964427
-4.57895 -12.8289 0.952046
-4.57895 -12.6316 0.938102
-4.57895 -12.4342 0.922882
-4.57895 -12.2368 0.906692
-4.57895 -12.0395 0.889879
-4.57895 -11.8421 0.872852
-4.57895 -11.6447 0.856095
-4.57895 -11.4474 0.840192
-4.57895 -11.25 0.825829
-4.57895 -11.0526 0.813813
-4.57895 -10.8553 0.805074
-4.57895 -10.6579 0.79327
-4.57895 -10.4605 0.774201
-4.57895 -10.2632 0.751221
-4.57895 -10.0658 0.727096
-4.57895 -9.86842 0.704044
-4.57895 -9.67105 0.683753
-4.57895 -9.47368 0.667426
-4.57895 -9.27631 0.6558
-4.57895 -9.07895 0.649182
-4.57895 -8.88158 0.647479
-4.57895 -8.68421 0.650231
-4.57895 -8.48684 0.656636
-4.57895 -8.28947 0.665584
-4.57895 -8.0921 0.675767
-4.57895 -7.89473 0.686595
-4.57895 -7.69737 0.695436
-4.57895 7.69739 1.11817
-4.57895 7.89475 1.1649
-4.57895 8.09212 1.22169
-4.57895 8.28949 1.29372
-4.57895 8.48686 1.39132
-4.57895 8.68423 1.50764
-4.57895 8.8816 1.63476
-4.57895 9.07897 1.76473
-4.57895 9.27633 1.88989
-4.57895 9.4737 2.0032
-4.57895 9.67107 2.09862
-4.57895 9.86844 2.17155
-4.57895 10.0658 2.21919
-4.57895 10.2632 2.24104
-4.57895 10.4605 2.23933
-4.57895 10.6579 2.21951
-4.57895 10.8553 2.19065
-4.57895 11.0527 2.15865
-4.57895 11.25 2.12372
-4.57895 11.4474 2.08964
-4.57895 11.6448 2.05997
-4.57895 11.8421 2.03791
-4.57895 12.0395 2.026
-4.57895 12.2369 2.02592
-4.57895 12.4342 2.03827
-4.57895 12.6316 2.06233
-4.57895 12.829 2.09587
-4.57895 13.0263 2.13491
-4.57895 13.2237 2.17362
-4.57895 13.4211 2.20411
-4.57895 13.6184 2.2163
-4.57895 13.8158 2.20404
-4.57895 14.0132 2.17836
-4.57895 14.2106 2.15129
-3.92763 -14.4079 1.11198
-3.92763 -14.2105 1.10496
-3.92763 -14.0132 1.09246
-3.92763 -13.8158 1.07539
-3.92763 -13.6184 1.05502
-3.92763 -13.4211 1.03489
-3.92763 -13.2237 1.01982
-3.92763 -13.0263 1.00859
-3.92763 -12.8289 0.999838
-3.92763 -12.6316 0.992377
-3.92763 -12.4342 0.985142
-3.92763 -12.2368 0.977229
-3.92763 -12.0395 0.967895
-3.92763 -11.8421 0.956563
-3.92763 -11.6447 0.942832
-3.92763 -11.4474 0.926476
-3.92763 -11.25 0.907443
-3.92763 -11.0526 0.88586
-3.92763 -10.8553 0.86203
-3.92763 -10.6579 0.836102
-3.92763 -10.4605 0.809494
-3.92763 -10.2632 0.784073
-3.92763 -10.0658 0.761177
-3.92763 -9.86842 0.741665
-3.92763 -9.67105 0.725964
-3.92763 -9.47368 0.714113
-3.92763 -9.27631 0.705808
-3.92763 -9.07895 0.700446
-3.92763 -8.88158 0.697158
-3.92763 -8.68421 0.694856
-3.92763 -8.48684 0.692263
-3.92763 -8.28947 0.687952
-3.92763 -8.0921 0.680616
-3.92763 8.09212 1.1643
-3.92763 8.28949 1.22522
-3.92763 8.48686 1.30032
-3.92763 8.68423 1.38719
-3.92763 8.8816 1.48279
-3.92763 9.07897 1.58364
-3.92763 9.27633 1.686
-3.92763 9.4737 1.78609
-3.92763 9.67107 1.88027
-3.92763 9.86844 1.9653
-3.92763 10.0658 2.03859
-3.92763 10.2632 2.09848
-3.92763 10.4605 2.14454
-3.92763 10.6579 2.17789
-3.92763 10.8553 2.20143
-3.92763 11.0527 2.20942
-3.92763 11.25 2.19533
-3.92763 11.4474 2.16386
-3.92763 11.6448 2.12061
-3.92763 11.8421 2.07164
-3.92763 12.0395 2.02315
-3.92763 12.2369 1.98109
-3.92763 12.4342 1.95075
-3.92763 12.6316 1.93637
-3.92763 12.829 1.94081
-3.92763 13.0263 1.96523
-3.92763 13.2237 2.00877
-3.92763 13.4211 2.06837
-3.92763 13.6184 2.13773
-3.92763 13.8158 2.19036
-3.92763 14.0132 2.22221
-3.92763 14.2106 2.23999
-3.92763 14.4079 2.24867
-3.27632 -14.6053 1.18995
-3.27632 -14.4079 1.18968
-3.27632 -14.2105 1.17838
-3.27632 -14.0132 1.15738
-3.27632 -13.8158 1.12866
-3.27632 -13.6184 1.0948
-3.27632 -13.4211 1.06221
-3.27632 -13.2237 1.03892
-3.27632 -13.0263 1.02269
-3.27632 -12.8289 1.01122
-3.27632 -12.6316 1.00245
-3.27632 -12.4342 0.994561
-3.27632 -12.2368 0.986029
-3.27632 -12.0395 0.975562
-3.27632 -11.8421 0.962114
-3.27632 -11.6447 0.944877
-3.27632 -11.4474 0.923274
-3.27632 -11.25 0.89695
-3.27632 -11.0526 0.865759
-3.27632 -10.8553 0.829763
-3.27632 -10.6579 0.793493
-3.27632 -10.4605 0.761821
-3.27632 -10.2632 0.735312
-3.27632 -10.0658 0.714083
-3.27632 -9.86842 0.697864
-3.27632 -9.67105 0.686057
-3.27632 -9.47368 0.677792
-3.27632 -9.27631 0.671976
-3.27632 -9.07895 0.667344
-3.27632 -8.88158 0.662503
-3.27632 -8.68421 0.655972
-3.27632 -8.48684 0.646221
-3.27632 -8.28947 0.631705
-3.27632 8.28949 1.13825
-3.27632 8.48686 1.19484
-3.27632 8.68423 1.25767
-3.27632 8.8816 1.32795
-3.27632 9.07897 1.40612
-3.27632 9.27633 1.49193
-3.27632 9.4737 1.58445
-3.27632 9.67107 1.68213
-3.27632 9.86844 1.78286
-3.27632 10.0658 1.88411
-3.27632 10.2632 1.98302
-3.27632 10.4605 2.07656
-3.27632 10.6579 2.16166
-3.27632 10.8553 2.23538
-3.27632 11.0527 2.28446
-3.27632 11.25 2.29927
-3.27632 11.4474 2.28476
-3.27632 11.6448 2.24764
-3.27632 11.8421 2.19589
-3.27632 12.0395 2.13824
-3.27632 12.2369 2.08365
-3.27632 12.4342 2.04075
-3.27632 12.6316 2.01732
-3.27632 12.829 2.0198
-3.27632 13.0263 2.05283
-3.27632 13.2237 2.11889
-3.27632 13.4211 2.21803
-3.27632 13.6184 2.34616
-3.27632 13.8158 2.4624
-3.27632 14.0132 2.55106
-3.27632 14.2106 2.61374
-3.27632 14.4079 2.65183
-3.27632 14.6053 2.66917
-2.625 -14.6053 1.18991
-2.625 -14.4079 1.17627
-2.625 -14.2105 1.15208
-2.625 -14.0132 1.11946
-2.625 -13.8158 1.08122
-2.625 -13.6184 1.04086
-2.625 -13.4211 1.00468
-2.625 -13.2237 0.978608
-2.625 -13.0263 0.960163
-2.625 -12.8289 0.946877
-2.625 -12.6316 0.936568
-2.625 -12.4342 0.927341
-2.625 -12.2368 0.917569
-2.625 -12.0395 0.905889
-2.625 -11.8421 0.891192
-2.625 -11.6447 0.872611
-2.625 -11.4474 0.84951
-2.625 -11.25 0.821477
-2.625 -11.0526 0.788305
-2.625 -10.8553 0.749987
-2.625 -10.6579 0.711748
-2.625 -10.4605 0.678879
-2.625 -10.2632 0.65156
-2.625 -10.0658 0.62959
-2.625 -9.86842 0.612453
-2.625 -9.67105 0.599367
-2.625 -9.47368 0.589346
-2.625 -9.27631 0.581249
-2.625 -9.07895 0.573819
-2.625 -8.88158 0.565736
-2.625 -8.68421 0.555645
-2.625 -8.48684 0.5422
-2.625 8.48686 1.13981
-2.625 8.68423 1.20274
-2.625 8.8816 1.2737
-2.625 9.07897 1.35414
-2.625 9.27633 1.44464
-2.625 9.4737 1.54494
-2.625 9.67107 1.65391
-2.625 9.86844 1.76963
-2.625 10.0658 1.88937
-2.625 10.2632 2.00974
-2.625 10.4605 2.12669
-2.625 10.6579 2.23567
-2.625 10.8553 2.33171
-2.625 11.0527 2.40069
-2.625 11.25 2.43339
-2.625 11.4474 2.43441
-2.625 11.6448 2.41043
-2.625 11.8421 2.36971
-2.625 12.0395 2.3215
-2.625 12.2369 2.27547
-2.625 12.4342 2.24106
-2.625 12.6316 2.22698
-2.625 12.829 2.24057
-2.625 13.0263 2.28733
-2.625 13.2237 2.37056
-2.625 13.4211 2.49098
-2.625 13.6184 2.64503
-2.625 13.8158 2.79007
-2.625 14.0132 2.90772
-2.625 14.2106 2.99733
-2.625 14.4079 3.05839
-2.625 14.6053 3.09306
-1.97369 -14.8026 1.13368
-1.97369 -14.6053 1.11297
-1.97369 -14.4079 1.0835
-1.97369 -14.2105 1.04734
-1.97369 -14.0132 1.00722
-1.97369 -13.8158 0.966507
-1.97369 -13.6184 0.92912
-1.97369 -13.4211 0.898438
-1.97369 -13.2237 0.873575
-1.97369 -13.0263 0.853092
-1.97369 -12.8289 0.835737
-1.97369 -12.6316 0.820397
-1.97369 -12.4342 0.806089
-1.97369 -12.2368 0.791958
-1.97369 -12.0395 0.777261
-1.97369 -11.8421 0.76137
-1.97369 -11.6447 0.743753
-1.97369 -11.4474 0.723981
-1.97369 -11.25 0.70171
-1.97369 -11.0526 0.676681
-1.97369 -10.8553 0.648715
-1.97369 -10.6579 0.621611
-1.97369 -10.4605 0.598859
-1.97369 -10.2632 0.579969
-1.97369 -10.0658 0.56432
-1.97369 -9.86842 0.5512
-1.97369 -9.67105 0.539839
-1.97369 -9.47368 0.529444
-1.97369 -9.27631 0.519228
-1.97369 -9.07895 0.508432
-1.97369 -8.88158 0.49635
-1.97369 -8.68421 0.482346
-1.97369 8.68423 1.2148
-1.97369 8.8816 1.2861
-1.97369 9.07897 1.36557
-1.97369 9.27633 1.45393
-1.97369 9.4737 1.55136
-1.97369 9.67107 1.65742
-1.97369 9.86844 1.77092
-1.97369 10.0658 1.88991
-1.97369 10.2632 2.01154
-1.97369 10.4605 2.13203
-1.97369 10.6579 2.24655
-1.97369 10.8553 2.34918
-1.97369 11.0527 2.42869
-1.97369 11.25 2.47893
-1.97369 11.4474 2.50257
-1.97369 11.6448 2.504
-1.97369 11.8421 2.48905
-1.97369 12.0395 2.46453
-1.97369 12.2369 2.43791
-1.97369 12.4342 2.41685
-1.97369 12.6316 2.40883
-1.97369 12.829 2.42077
-1.97369 13.0263 2.45865
-1.97369 13.2237 2.52728
-1.97369 13.4211 2.63002
-1.97369 13.6184 2.76701
-1.97369 13.8158 2.89863
-1.97369 14.0132 3.00871
-1.97369 14.2106 3.09847
-1.97369 14.4079 3.1682
-1.97369 14.6053 3.22073
-1.97369 14.8027 3.26022
-1.32237 -14.8026 1.03839
-1.32237 -14.6053 1.00466
-1.32237 -14.4079 0.965547
-1.32237 -14.2105 0.923673
-1.32237 -14.0132 0.882211
-1.32237 -13.8158 0.844813
-1.32237 -13.6184 0.815562
-1.32237 -13.4211 0.794135
-1.32237 -13.2237 0.771955
-1.32237 -13.0263 0.749299
-1.32237 -12.8289 0.726781
-1.32237 -12.6316 0.704912
-1.32237 -12.4342 0.684096
-1.32237 -12.2368 0.664621
-1.32237 -12.0395 0.646656
-1.32237 -11.8421 0.630252
-1.32237 -11.6447 0.615339
-1.32237 -11.4474 0.601727
-1.32237 -11.25 0.58911
-1.32237 -11.0526 0.57707
-1.32237 -10.8553 0.565081
-1.32237 -10.6579 0.555517
-1.32237 -10.4605 0.549725
-1.32237 -10.2632 0.545953
-1.32237 -10.0658 0.542718
-1.32237 -9.86842 0.538807
-1.32237 -9.67105 0.533284
-1.32237 -9.47368 0.525478
-1.32237 -9.27631 0.51498
-1.32237 -9.07895 0.501638
-1.32237 -8.88158 0.485534
-1.32237 8.8816 1.30654
-1.32237 9.07897 1.36596
-1.32237 9.27633 1.43196
-1.32237 9.4737 1.50628
-1.32237 9.67107 1.59031
-1.32237 9.86844 1.68478
-1.32237 10.0658 1.78945
-1.32237 10.2632 1.90269
-1.32237 10.4605 2.02109
-1.32237 10.6579 2.13903
-1.32237 10.8553 2.24829
-1.32237 11.0527 2.34037
-1.32237 11.25 2.4133
-1.32237 11.4474 2.46709
-1.32237 11.6448 2.50267
-1.32237 11.8421 2.52192
-1.32237 12.0395 2.52765
-1.32237 12.2369 2.52359
-1.32237 12.4342 2.51438
-1.32237 12.6316 2.50549
-1.32237 12.829 2.50324
-1.32237 13.0263 2.51472
-1.32237 13.2237 2.54776
-1.32237 13.4211 2.61089
-1.32237 13.6184 2.71116
-1.32237 13.8158 2.80613
-1.32237 14.0132 2.88077
-1.32237 14.2106 2.9409
-1.32237 14.4079 2.99056
-1.32237 14.6053 3.03583
-1.32237 14.8027 3.08272
-0.671054 -14.8026 0.928172
-0.671054 -14.6053 0.888904
-0.671054 -14.4079 0.846743
-0.671054 -14.2105 0.804608
-0.671054 -14.0132 0.765832
-0.671054 -13.8158 0.734126
-0.671054 -13.6184 0.713535
-0.671054 -13.4211 0.701122
-0.671054 -13.2237 0.683273
-0.671054 -13.0263 0.661628
-0.671054 -12.8289 0.638212
-0.671054 -12.6316 0.614744
-0.671054 -12.4342 0.592624
-0.671054 -12.2368 0.572933
-0.671054 -12.0395 0.556441
-0.671054 -11.8421 0.543599
-0.671054 -11.6447 0.534555
-0.671054 -11.4474 0.529163
-0.671054 -11.25 0.526989
-0.671054 -11.0526 0.527334
-0.671054 -10.8553 0.529245
-0.671054 -10.6579 0.534296
-0.671054 -10.4605 0.542488
-0.671054 -10.2632 0.550995
-0.671054 -10.0658 0.557616
-0.671054 -9.86842 0.560741
-0.671054 -9.67105 0.559318
-0.671054 -9.47368 0.552815
-0.671054 -9.27631 0.541179
-0.671054 -9.07895 0.524796
-0.671054 -8.88158 0.504444
-0.671054 8.8816 1.33611
-0.671054 9.07897 1.37012
-0.671054 9.27633 1.40873
-0.671054 9.4737 1.45548
-0.671054 9.67107 1.5138
-0.671054 9.86844 1.58645
-0.671054 10.0658 1.67491
-0.671054 10.2632 1.77866
-0.671054 10.4605 1.89448
-0.671054 10.6579 2.01566
-0.671054 10.8553 2.13122
-0.671054 11.0527 2.23405
-0.671054 11.25 2.3258
-0.671054 11.4474 2.40445
-0.671054 11.6448 2.46803
-0.671054 11.8421 2.51498
-0.671054 12.0395 2.54453
-0.671054 12.2369 2.55703
-0.671054 12.4342 2.55433
-0.671054 12.6316 2.54011
-0.671054 12.829 2.52022
-0.671054 13.0263 2.50292
-0.671054 13.2237 2.49907
-0.671054 13.4211 2.52232
-0.671054 13.6184 2.58624
-0.671054 13.8158 2.63915
-0.671054 14.0132 2.66506
-0.671054 14.2106 2.67481
-0.671054 14.4079 2.67836
-0.671054 14.6053 2.68634
-0.671054 14.8027 2.70793
-0.0197382 -14.8026 0.845359
-0.0197382 -14.6053 0.802467
-0.0197382 -14.4079 0.757974
-0.0197382 -14.2105 0.71497
-0.0197382 -14.0132 0.676896
-0.0197382 -13.8158 0.647509
-0.0197382 -13.6184 0.630847
-0.0197382 -13.4211 0.623304
-0.0197382 -13.2237 0.609994
-0.0197382 -13.0263 0.592825
-0.0197382 -12.8289 0.57408
-0.0197382 -12.6316 0.555655
-0.0197382 -12.4342 0.539057
-0.0197382 -12.2368 0.525407
-0.0197382 -12.0395 0.515442
-0.0197382 -11.8421 0.509524
-0.0197382 -11.6447 0.507656
-0.0197382 -11.4474 0.509489
-0.0197382 -11.25 0.51435
-0.0197382 -11.0526 0.521253
-0.0197382 -10.8553 0.52893
-0.0197382 -10.6579 0.538835
-0.0197382 -10.4605 0.550825
-0.0197382 -10.2632 0.561832
-0.0197382 -10.0658 0.569553
-0.0197382 -9.86842 0.572397
-0.0197382 -9.67105 0.569438
-0.0197382 -9.47368 0.560355
-0.0197382 -9.27631 0.545377
-0.0197382 -9.07895 0.525229
-0.0197382 -8.88158 0.501065
-0.0197382 8.8816 1.37365
-0.0197382 9.07897 1.39654
-0.0197382 9.27633 1.42368
-0.0197382 9.4737 1.45952
-0.0197382 9.67107 1.50849
-0.0197382 9.86844 1.57426
-0.0197382 10.0658 1.65902
-0.0197382 10.2632 1.7626
-0.0197382 10.4605 1.88155
-0.0197382 10.6579 2.00827
-0.0197382 10.8553 2.12999
-0.0197382 11.0527 2.23979
-0.0197382 11.25 2.34119
-0.0197382 11.4474 2.4316
-0.0197382 11.6448 2.50803
-0.0197382 11.8421 2.56756
-0.0197382 12.0395 2.6079
-0.0197382 12.2369 2.62796
-0.0197382 12.4342 2.62838
-0.0197382 12.6316 2.61206
-0.0197382 12.829 2.58464
-0.0197382 13.0263 2.5549
-0.0197382 13.2237 2.53514
-0.0197382 13.4211 2.54136
-0.0197382 13.6184 2.58991
-0.0197382 13.8158 2.61926
-0.0197382 14.0132 2.61111
-0.0197382 14.2106 2.57966
-0.0197382 14.4079 2.53965
-0.0197382 14.6053 2.50479
-0.0197382 14.8027 2.48694
0.631577 -14.8026 0.761779
0.631577 -14.6053 0.721946
0.631577 -14.4079 0.682131
0.631577 -14.2105 0.644961
0.631577 -14.0132 0.613275
0.631577 -13.8158 0.590096
0.631577 -13.6184 0.578605
0.631577 -13.4211 0.575464
0.631577 -13.2237 0.567874
0.631577 -13.0263 0.557305
0.631577 -12.8289 0.545549
0.631577 -12.6316 0.534085
0.631577 -12.4342 0.524071
0.631577 -12.2368 0.516354
0.631577 -12.0395 0.511468
0.631577 -11.8421 0.509647
0.631577 -11.6447 0.510832
0.631577 -11.4474 0.514688
0.631577 -11.25 0.52062
0.631577 -11.0526 0.527787
0.631577 -10.8553 0.535129
0.631577 -10.6579 0.544206
0.631577 -10.4605 0.554814
0.631577 -10.2632 0.563908
0.631577 -10.0658 0.569242
0.631577 -9.86842 0.569318
0.631577 -9.67105 0.563322
0.631577 -9.47368 0.551064
0.631577 -9.27631 0.532911
0.631577 -9.07895 0.50973
0.631577 -8.88158 0.482811
0.631577 8.8816 1.46883
0.631577 9.07897 1.50007
0.631577 9.27633 1.53529
0.631577 9.4737 1.57807
0.631577 9.67107 1.63189
0.631577 9.86844 1.69958
0.631577 10.0658 1.78267
0.631577 10.2632 1.88073
0.631577 10.4605 1.99069
0.631577 10.6579 2.10606
0.631577 10.8553 2.21624
0.631577 11.0527 2.31591
0.631577 11.25 2.4087
0.631577 11.4474 2.49283
0.631577 11.6448 2.56598
0.631577 11.8421 2.6257
0.631577 12.0395 2.66996
0.631577 12.2369 2.69754
0.631577 12.4342 2.70859
0.631577 12.6316 2.70504
0.631577 12.829 2.69105
0.631577 13.0263 2.67338
0.631577 13.2237 2.66167
0.631577 13.4211 2.66866
0.631577 13.6184 2.70699
0.631577 13.8158 2.71605
0.631577 14.0132 2.67996
0.631577 14.2106 2.61574
0.631577 14.4079 2.53958
0.631577 14.6053 2.46611
0.631577 14.8027 2.40797
1.28289 -14.8026 0.652008
1.28289 -14.6053 0.628657
1.28289 -14.4079 0.607701
1.28289 -14.2105 0.590387
1.28289 -14.0132 0.577909
1.28289 -13.8158 0.571411
1.28289 -13.6184 0.571986
1.28289 -13.4211 0.576109
1.28289 -13.2237 0.574537
1.28289 -13.0263 0.568612
1.28289 -12.8289 0.559924
1.28289 -12.6316 0.549862
1.28289 -12.4342 0.539607
1.28289 -12.2368 0.530134
1.28289 -12.0395 0.522214
1.28289 -11.8421 0.516417
1.28289 -11.6447 0.513118
1.28289 -11.4474 0.512506
1.28289 -11.25 0.514586
1.28289 -11.0526 0.519195
1.28289 -10.8553 0.526012
1.28289 -10.6579 0.53625
1.28289 -10.4605 0.548519
1.28289 -10.2632 0.55934
1.28289 -10.0658 0.566156
1.28289 -9.86842 0.567257
1.28289 -9.67105 0.561708
1.28289 -9.47368 0.549273
1.28289 -9.27631 0.530345
1.28289 -9.07895 0.505862
1.28289 -8.88158 0.477235
1.28289 8.8816 1.58503
1.28289 9.07897 1.63558
1.28289 9.27633 1.68796
1.28289 9.4737 1.74307
1.28289 9.67107 1.80177
1.28289 9.86844 1.86463
1.28289 10.0658 1.93175
1.28289 10.2632 2.00253
1.28289 10.4605 2.07539
1.28289 10.6579 2.14761
1.28289 10.8553 2.21504
1.28289 11.0527 2.27832
1.28289 11.25 2.34203
1.28289 11.4474 2.40566
1.28289 11.6448 2.4679
1.28289 11.8421 2.52693
1.28289 12.0395 2.5807
1.28289 12.2369 2.62724
1.28289 12.4342 2.66501
1.28289 12.6316 2.69315
1.28289 12.829 2.71185
1.28289 13.0263 2.72254
1.28289 13.2237 2.72814
1.28289 13.4211 2.73321
1.28289 13.6184 2.74187
1.28289 13.8158 2.71253
1.28289 14.0132 2.64122
1.28289 14.2106 2.54579
1.28289 14.4079 2.44242
1.28289 14.6053 2.34524
1.28289 14.8027 2.26602
1.93421 -14.8026 0.565095
1.93421 -14.6053 0.560189
1.93421 -14.4079 0.559656
1.93421 -14.2105 0.563297
1.93421 -14.0132 0.570626
1.93421 -13.8158 0.580893
1.93421 -13.6184 0.593108
1.93421 -13.4211 0.603222
1.93421 -13.2237 0.604889
1.93421 -13.0263 0.599633
1.93421 -12.8289 0.589179
1.93421 -12.6316 0.575138
1.93421 -12.4342 0.559004
1.93421 -12.2368 0.542151
1.93421 -12.0395 0.525832
1.93421 -11.8421 0.511175
1.93421 -11.6447 0.499185
1.93421 -11.4474 0.490739
1.93421 -11.25 0.486591
1.93421 -11.0526 0.487366
1.93421 -10.8553 0.493568
1.93421 -10.6579 0.505517
1.93421 -10.4605 0.520078
1.93421 -10.2632 0.533351
1.93421 -10.0658 0.542459
1.93421 -9.86842 0.545475
1.93421 -9.67105 0.541329
1.93421 -9.47368 0.529726
1.93421 -9.27631 0.511058
1.93421 -9.07895 0.486316
1.93421 -8.88158 0.457001
1.93421 -8.68421 0.425037
1.93421 8.68423 1.56255
1.93421 8.8816 1.64344
1.93421 9.07897 1.72557
1.93421 9.27633 1.80594
1.93421 9.4737 1.88157
1.93421 9.67107 1.94972
1.93421 9.86844 2.00807
1.93421 10.0658 2.05504
1.93421 10.2632 2.08998
1.93421 10.4605 2.11351
1.93421 10.6579 2.12777
1.93421 10.8553 2.13677
1.93421 11.0527 2.15046
1.93421 11.25 2.1764
1.93421 11.4474 2.21533
1.93421 11.6448 2.2668
1.93421 11.8421 2.32923
1.93421 12.0395 2.40003
1.93421 12.2369 2.47577
1.93421 12.4342 2.55232
1.93421 12.6316 2.62501
1.93421 12.829 2.68879
1.93421 13.0263 2.73844
1.93421 13.2237 2.7687
1.93421 13.4211 2.77453
1.93421 13.6184 2.75278
1.93421 13.8158 2.69239
1.93421 14.0132 2.60413
1.93421 14.2106 2.50496
1.93421 14.4079 2.40948
1.93421 14.6053 2.32973
1.93421 14.8027 2.27507
2.58553 -14.6053 0.528286
2.58553 -14.4079 0.53703
2.58553 -14.2105 0.550224
2.58553 -14.0132 0.566581
2.58553 -13.8158 0.584453
2.58553 -13.6184 0.601862
2.58553 -13.4211 0.614288
2.58553 -13.2237 0.616315
2.58553 -13.0263 0.609675
2.58553 -12.8289 0.59629
2.58553 -12.6316 0.578005
2.58553 -12.4342 0.556585
2.58553 -12.2368 0.533705
2.58553 -12.0395 0.510955
2.58553 -11.8421 0.489827
2.58553 -11.6447 0.471713
2.58553 -11.4474 0.4579
2.58553 -11.25 0.449569
2.58553 -11.0526 0.447786
2.58553 -10.8553 0.453498
2.58553 -10.6579 0.46605
2.58553 -10.4605 0.48104
